ply
format ascii 1.0
element vertex 1345
property float x
property float y
property float z
property uchar red
property uchar green
property uchar blue
end_header
0.22195 0.05181 -0.50324 247 255 243
0.30638 0.16841 -0.92680 69 127 132
0.23154 0.11465 -0.82926 161 183 181
0.18978 0.01955 -0.49074 0 24 29
-0.22390 0.11620 0.86834 191 201 163
0.13099 -0.12201 0.39453 150 148 140
0.17562 -0.05743 -0.04176 194 206 183
0.33881 0.25592 -0.15750 233 220 206
-0.31552 -0.18653 0.17316 66 143 164
-0.09915 -0.18456 -0.05560 11 46 27
0.31562 0.16774 -0.62865 191 198 197
0.23161 0.22590 -0.22428 155 140 130
-0.44207 -0.13661 0.36613 18 59 102
0.14692 -0.13082 0.56839 5 6 0
0.14477 -0.10128 0.15987 13 4 0
0.11553 -0.07879 -0.22914 135 115 106
-0.31979 -0.17254 0.20377 180 255 255
0.33239 0.16317 -0.87242 11 26 9
0.11513 -0.07902 -0.23740 194 170 155
-0.49688 -0.18675 0.18065 174 243 255
0.31642 0.13470 0.00120 176 209 193
-0.50961 -0.14370 0.24077 88 88 79
-0.50108 -0.14909 0.31577 185 172 134
0.30552 0.23218 -0.29114 212 198 197
0.45702 0.15416 -1.24794 97 141 149
0.19489 0.00749 -0.52770 1 24 0
-0.52694 0.06138 0.81162 162 208 223
-0.27453 -0.10445 0.48653 150 156 134
0.10263 -0.10257 0.01753 11 16 15
0.30297 0.08636 -0.12062 0 22 15
-0.32748 -0.19252 0.19129 67 139 148
-0.55256 -0.19423 0.23426 125 209 206
0.22694 0.30944 -0.33259 6 5 10
-0.52453 -0.15177 0.26804 156 220 215
0.31036 0.17382 -0.18685 7 55 76
-0.38260 -0.18379 0.26341 124 193 201
0.31773 0.14717 -0.97450 197 175 165
0.31630 0.25099 0.31277 148 163 148
-0.40205 -0.18853 0.28797 0 8 31
0.24272 0.15606 -0.38739 169 212 216
-0.24499 -0.13225 0.65858 0 6 17
-0.31335 -0.11585 0.82018 100 220 231
0.24926 -0.05300 0.16593 255 222 185
-0.20280 -0.15003 0.20288 51 110 156
-0.31080 0.13253 0.79258 0 72 69
0.41527 0.20970 -0.64585 1 23 1
-0.21237 -0.17197 0.06760 114 198 200
0.28218 0.11321 -0.11499 0 52 35
-0.38859 -0.17564 0.27873 21 88 91
-0.08584 -0.18413 0.08765 68 134 149
-0.31321 -0.17137 0.19881 69 51 14
0.09723 -0.10166 0.16135 119 174 185
-0.44091 -0.19429 0.20146 108 183 159
-0.23570 -0.02929 0.49153 93 121 110
0.27653 0.20780 -0.32644 0 0 0
0.26630 0.31394 -0.45749 201 160 120
0.28271 0.18244 -0.33417 156 174 173
0.17061 -0.02939 -0.31004 107 139 139
0.35413 0.05263 0.20472 117 161 154
0.38634 0.20981 -0.30745 0 0 0
0.26156 0.13596 -0.80269 0 26 10
0.29135 0.20860 0.14927 145 173 164
0.15294 -0.09723 0.56415 87 47 25
0.40787 0.12435 0.04896 0 23 45
0.27716 0.16237 -0.62287 186 194 181
0.07792 -0.10827 -0.05075 178 173 151
0.29738 0.19102 -0.46636 194 202 189
0.30603 0.10506 -0.02112 169 209 193
0.39839 0.14312 0.20059 158 186 194
-0.36794 -0.09113 0.43437 24 84 123
0.29492 0.20450 -0.36213 0 0 0
0.11328 -0.08150 -0.24431 20 106 123
-0.42960 -0.17291 0.26059 180 236 194
-0.34424 0.02717 0.62580 0 68 74
-0.32627 -0.18995 0.13912 39 179 238
-0.44191 -0.18482 0.21861 192 171 126
0.36015 0.15276 -1.10304 7 0 0
0.04120 -0.12054 -0.04022 0 53 83
-0.33787 -0.10756 0.81358 67 187 196
0.34296 0.18924 -0.56890 0 0 6
-0.19653 -0.16260 0.11930 156 231 235
0.33015 0.31877 0.29354 136 141 137
0.35256 0.15633 -1.08449 166 190 190
0.23430 0.08057 -0.21724 127 172 169
0.27594 0.17329 -0.71161 194 207 181
0.20681 0.06177 -0.71479 208 197 107
0.19162 0.00724 -0.56151 129 129 106
-0.43782 -0.15666 0.35879 41 136 146
-0.13957 -0.16935 0.11724 0 33 61
-0.16436 -0.17922 0.11048 0 59 65
0.31770 0.25106 0.20711 0 14 5
0.10468 -0.11922 0.39373 11 55 57
-0.27859 -0.18301 0.10215 123 188 191
-0.49871 -0.17694 0.19962 152 206 191
0.26498 0.16803 -0.47699 154 152 144
0.36733 0.15313 -1.05056 10 1 0
0.44345 0.19301 -0.21458 126 201 246
-0.24753 -0.17157 0.21114 102 188 205
-0.49631 -0.19235 0.18032 14 20 0
-0.32116 0.13944 0.91088 113 160 170
0.40186 0.22286 -0.42675 92 67 32
0.24157 -0.04088 0.60446 172 229 219
-0.34583 -0.10663 0.85755 0 79 99
-0.37122 -0.15142 0.53371 54 128 135
-0.29229 -0.19203 0.16273 128 182 186
0.23311 0.00122 -0.09062 110 117 111
0.26688 0.12591 -0.85033 53 74 106
0.30435 0.15124 0.11215 0 36 29
0.29051 0.25797 -0.79331 0 30 158
0.44050 0.21006 -0.92305 230 208 177
-0.48185 -0.13302 0.31453 145 164 155
-0.50484 -0.18873 0.18979 70 188 225
0.25939 0.20656 -0.19320 143 166 158
0.35267 0.15431 -0.82705 0 3 20
-0.18801 -0.17257 0.02802 0 6 13
-0.35145 -0.04987 0.75250 115 216 217
0.26729 0.13200 -0.89389 0 0 0
0.25912 0.13333 -0.85065 73 104 84
0.30744 0.18257 -0.45688 156 179 171
-0.43143 -0.02841 0.50222 118 167 172
0.22881 0.13425 -0.74937 255 198 117
0.33428 0.27800 -0.32493 176 183 173
-0.47897 -0.18156 0.20701 61 171 205
0.09095 -0.07826 0.51332 119 142 108
0.38367 0.11936 0.10472 107 143 138
-0.49772 -0.18073 0.18431 171 171 164
-0.46055 -0.18678 0.21729 168 255 237
0.04253 -0.07049 0.64035 167 210 218
-0.52117 -0.14428 0.25377 7 23 0
-0.50552 0.15068 0.88903 15 57 39
0.41421 0.21128 -0.35012 142 163 159
0.28944 0.13402 0.08312 3 56 53
-0.16046 0.19631 0.66660 0 16 33
0.24861 0.16503 -0.59129 136 136 133
-0.39978 -0.19100 0.23766 156 238 235
-0.40313 0.01742 0.78817 44 107 114
0.35256 0.27237 -0.24703 164 203 203
-0.35087 -0.07403 0.92797 55 189 182
0.31125 0.22488 -0.31378 5 40 50
-0.49665 -0.14046 0.33075 255 255 246
-0.35063 -0.14050 0.69680 0 54 53
-0.09815 -0.17848 -0.01719 101 173 150
0.22144 0.10314 -0.80880 185 176 161
0.01716 -0.15315 0.46255 22 101 131
-0.12378 -0.15096 0.24405 71 162 183
-0.42896 -0.18736 0.21308 230 255 255
-0.40211 -0.03655 0.49201 143 175 186
-0.46377 -0.01840 0.50983 176 173 149
-0.42131 -0.16879 0.50209 0 22 32
0.37364 0.15034 -1.10494 39 84 74
0.40313 0.19267 -0.49217 146 162 152
0.26290 0.24622 -0.31871 27 117 176
0.36470 0.15332 -1.07759 0 2 0
-0.53350 -0.18999 0.19097 123 175 181
0.35991 0.15712 -1.07549 96 80 43
0.31778 0.17840 -0.25816 0 4 13
0.30325 0.25764 0.20446 183 217 201
-0.29678 0.00139 0.60560 183 199 170
0.18560 0.02082 -0.49361 62 86 65
0.18262 -0.03762 -0.25867 138 203 223
0.37312 0.20052 -0.34799 22 36 28
0.40391 0.16460 -0.22756 236 228 205
0.21469 0.04918 -0.62834 20 3 14
-0.38123 -0.18770 0.24254 201 233 197
0.32763 0.15086 -1.03329 50 84 108
0.28230 0.21108 -0.33752 207 207 204
-0.40160 -0.13690 0.46011 0 8 0
0.51415 0.27175 -0.20793 240 220 191
0.25748 0.03021 0.03083 97 153 158
-0.46734 -0.10089 0.45806 143 217 207
0.37777 -0.00347 0.26166 159 181 161
0.20897 0.01171 -0.30472 205 221 192
0.38066 0.25145 -0.40293 166 209 225
0.25790 0.26849 -0.00076 0 0 1
-0.23057 -0.14975 0.44264 94 120 128
0.40024 0.15442 0.00114 0 0 0
0.39658 0.22761 -0.31172 190 161 104
-0.30013 -0.18246 0.12178 197 212 195
0.42499 0.14729 -1.20522 0 0 0
0.39505 0.20635 -0.38722 61 121 108
-0.43358 -0.12137 0.37196 131 181 177
0.21888 0.08617 -0.75381 151 121 80
-0.43809 0.00464 0.89595 64 180 179
0.24250 0.21787 -0.35319 0 0 9
0.32389 0.18121 -0.62678 145 108 83
-0.06861 -0.14489 0.07288 7 135 165
0.37596 0.06197 0.24483 140 190 167
0.25223 0.21862 0.06203 142 163 152
0.13167 0.26760 -0.33561 117 171 173
0.25061 0.06037 -0.31553 120 141 130
0.36795 0.11624 -0.28692 203 224 217
-0.49910 -0.17412 0.20654 0 22 42
0.29603 0.20137 -0.34176 167 187 169
0.21199 0.06129 -0.39726 132 152 127
-0.49436 -0.15412 0.35301 153 196 200
-0.54289 -0.17931 0.21846 56 114 98
-0.31933 -0.08120 0.70263 136 202 196
-0.00742 -0.15078 0.04415 32 3 0
-0.38036 -0.17767 0.26930 0 53 66
-0.47705 -0.18195 0.21391 124 190 162
0.24095 0.24549 0.06515 0 7 19
0.31019 0.18190 -0.59257 232 239 231
-0.30237 -0.18385 0.19154 14 54 59
0.26994 0.19293 -0.32264 154 175 168
0.33394 0.16579 -0.34014 20 45 31
0.42044 0.17416 -0.25792 128 163 207
0.26139 0.19906 -0.37235 90 72 63
-0.48539 -0.19686 0.17697 147 142 120
-0.01901 -0.12613 0.55052 128 171 173
0.33731 0.15269 -0.50204 153 187 159
0.46281 0.15202 -1.25862 0 37 43
0.29158 0.21587 -0.36124 138 170 172
0.36952 0.11357 -0.38001 0 25 18
0.11958 -0.07786 -0.22501 54 61 57
0.20038 0.03994 -0.35015 183 175 152
0.10665 -0.05229 0.44601 49 45 33
0.26414 0.17289 -0.36775 179 186 178
0.18114 -0.00278 -0.44475 53 70 53
0.19625 0.02117 -0.51541 18 30 39
-0.54602 -0.18737 0.24407 0 51 63
0.31025 0.11638 0.03284 161 185 168
-0.47454 -0.08649 0.40864 171 151 120
-0.23852 -0.16061 0.19182 92 131 189
-0.54295 -0.19047 0.23645 213 213 152
-0.24366 -0.16287 0.37388 125 232 231
0.46085 0.09951 -0.57580 43 96 108
0.39154 0.25493 -0.15422 0 26 17
0.39236 0.19644 -0.10499 13 30 6
0.34079 0.11014 -0.28840 129 145 133
0.12876 -0.08550 0.55982 22 37 22
0.13157 -0.09268 0.11750 114 95 74
-0.31574 -0.18703 0.12605 12 13 1
0.42832 0.13049 -0.93220 13 0 0
-0.41222 0.13362 0.66982 0 0 14
-0.01584 -0.16660 0.24711 17 81 70
0.23190 0.10841 -0.80399 224 232 219
-0.18310 0.08755 0.89035 88 168 188
-0.53843 -0.17654 0.25975 44 78 64
-0.32246 -0.19515 0.17775 74 119 102
0.22154 0.05673 -0.62474 93 157 195
0.05463 -0.12710 0.15107 126 159 155
0.18629 -0.02453 -0.35738 33 55 39
0.29462 0.23751 -0.20062 171 204 190
0.20368 0.05425 -0.67077 211 192 73
0.51805 0.13663 -0.31414 232 197 149
0.44703 0.07332 0.09739 0 11 36
0.16196 -0.04610 0.04508 114 127 129
-0.26344 0.01797 0.75219 128 194 168
-0.29631 -0.09180 0.45467 0 0 0
0.28920 0.21095 0.07429 135 179 178
-0.16391 -0.13764 0.60010 77 188 207
-0.24404 -0.06202 0.43989 0 48 50
0.16277 0.28950 -0.45975 157 171 165
0.34476 0.20112 -0.26460 6 17 0
0.20963 0.02772 -0.43491 26 34 19
0.18897 0.03114 -0.47440 72 72 49
-0.37121 0.01817 0.54450 117 181 176
0.38550 0.22258 0.01172 0 22 20
-0.47432 -0.16233 0.27582 86 153 138
0.22028 0.03427 -0.34057 116 116 89
-0.51706 -0.13932 0.28056 137 189 198
0.22873 0.07924 -0.64697 160 206 191
-0.51059 -0.16463 0.25186 110 188 200
0.35626 0.30702 -0.28832 0 1 0
0.28128 0.13423 -0.60881 140 197 187
-0.29850 -0.18370 0.21220 98 149 133
0.31113 0.16390 -0.24805 57 40 15
0.29386 0.14140 -1.01123 120 185 186
0.38896 0.18745 0.12491 0 3 0
0.34653 -0.00391 0.26611 6 6 6
0.35539 0.16367 -0.20304 0 0 0
-0.35418 0.09191 0.70448 160 219 215
-0.36532 -0.19589 0.16414 0 101 123
0.29153 0.18484 -0.47635 0 0 0
-0.49598 -0.12189 0.31167 191 172 133
-0.23803 0.12883 0.76442 0 6 25
-0.42386 -0.03679 0.58656 119 142 128
0.26938 0.23791 -0.36196 164 150 128
-0.42462 0.09946 0.74486 195 196 162
-0.39568 -0.19399 0.26759 118 167 172
-0.32385 0.12838 0.80605 61 101 113
-0.29545 -0.13680 0.37079 45 213 172
-0.42171 0.09515 0.81205 86 187 194
0.25447 0.18403 -0.48449 145 172 171
0.38922 0.03470 0.15067 0 25 15
0.37167 0.17495 -0.45195 152 185 187
0.10794 -0.07744 -0.24992 6 46 58
0.05237 -0.13338 0.13210 0 0 9
-0.32061 -0.19366 0.12047 91 160 136
-0.40624 -0.12506 0.45262 0 23 36
0.36031 0.14026 -0.24084 0 13 0
0.29474 0.17018 -0.14190 0 0 0
-0.47887 -0.09313 0.51722 0 24 28
0.16453 -0.04663 -0.25377 0 5 0
0.33679 0.10077 -0.39150 208 255 255
0.33312 0.17364 -0.52499 4 44 47
-0.44696 -0.18354 0.24677 167 244 255
0.19115 0.00026 -0.42783 218 248 235
-0.11902 -0.18254 -0.02821 17 43 26
0.25628 0.13313 -0.85366 217 223 201
0.39159 0.19502 0.08620 0 7 0
0.41246 0.20994 -0.26059 0 30 26
0.20501 -0.07662 0.08841 92 101 102
-0.28023 -0.18698 0.09924 78 244 232
-0.39010 -0.00508 0.76579 78 115 104
0.35292 0.21172 -0.30690 143 180 163
-0.43604 -0.19588 0.18852 0 36 36
0.36350 0.16632 -0.62121 164 187 177
0.07477 -0.14024 0.30643 29 11 4
0.28613 0.22645 -0.23416 0 4 0
-0.44846 -0.18359 0.23162 113 171 153
0.11529 -0.06061 0.37265 93 66 55
0.32027 0.15532 -0.91328 115 122 112
0.14544 -0.06291 -0.30243 6 96 103
0.37977 0.19528 -0.61909 183 209 190
0.52366 0.11061 -0.45439 202 177 174
-0.33898 -0.19046 0.20255 60 117 130
-0.49367 -0.18036 0.23582 157 126 108
0.24415 0.05465 -0.25503 0 0 0
-0.42972 -0.16128 0.33651 116 228 241
0.40250 0.10047 -0.24715 120 194 223
-0.27740 -0.11076 0.47937 130 190 204
-0.09350 -0.17880 -0.02172 175 175 152
0.37991 0.07163 -0.38462 0 23 17
0.17108 -0.10334 0.55233 140 114 70
-0.05389 -0.15736 0.61653 195 248 245
0.23334 0.21032 -0.22498 174 202 196
0.20488 0.03399 -0.53225 16 80 95
-0.22299 -0.15235 0.44804 99 182 187
0.11499 -0.07769 -0.23735 40 34 39
-0.08378 -0.18127 -0.01297 0 36 43
-0.28169 0.10119 0.91788 181 196 181
-0.45797 -0.18535 0.19551 46 122 136
0.18553 -0.04124 -0.22961 105 168 145
0.39531 0.14591 -1.17829 0 0 0
0.39731 0.02167 0.35565 0 0 0
0.34567 0.09629 -0.19436 129 166 155
0.34181 0.18075 -0.34259 132 160 154
-0.38564 -0.10204 0.51769 133 156 148
0.25792 0.12179 -0.90426 187 200 163
0.20726 0.06773 -0.25307 161 189 195
0.38898 0.10653 -0.37022 184 196 182
-0.53470 -0.17286 0.25484 82 126 121
-0.39551 -0.17151 0.31053 114 171 182
-0.44326 -0.18407 0.22278 0 34 47
0.20050 0.02321 -0.47769 9 24 5
-0.48561 -0.16332 0.26152 0 44 61
-0.29389 -0.18116 0.19730 0 9 10
-0.48483 -0.11464 0.40291 122 116 104
0.27584 0.18564 -0.38003 0 17 0
0.23574 0.23431 0.23230 0 3 0
0.11667 -0.07349 0.44841 137 99 77
-0.48634 -0.17284 0.20173 169 193 172
0.25439 0.18440 -0.16871 103 135 142
0.50474 0.12585 -0.35380 25 47 47
0.38149 0.20313 -0.40155 188 188 179
0.10818 -0.08812 -0.19610 166 150 113
0.38093 0.20516 -0.31277 0 0 0
0.23867 0.13283 -0.60539 224 222 218
0.45794 0.10562 -0.62507 138 178 190
0.22571 -0.04074 0.08525 0 20 15
0.46129 0.17494 -0.51605 172 173 178
0.31172 0.21215 -0.30023 148 150 145
0.32550 0.14082 0.08703 0 21 1
0.00313 -0.09846 0.73375 121 168 171
0.18648 0.00673 -0.41068 7 32 3
0.12952 -0.05659 0.21713 117 128 119
0.23641 0.03868 -0.51588 76 40 31
-0.53361 -0.01506 0.78050 101 182 214
0.32891 0.12697 -0.58369 136 191 223
0.12249 -0.12266 0.55929 156 129 101
-0.47971 0.08025 0.84354 104 143 143
-0.34275 0.07271 0.68484 51 97 82
0.04316 -0.14367 0.13915 1 47 114
0.35181 0.17016 -0.39753 0 0 6
0.23727 0.16637 -0.61268 207 192 182
0.29482 0.22274 -0.37170 143 164 180
-0.37628 -0.17823 0.32280 116 162 136
0.09609 -0.06654 0.22755 94 96 87
0.43433 0.18331 -0.15145 0 1 0
0.00930 -0.15420 0.10561 140 145 137
-0.47621 -0.17114 0.24401 98 106 91
0.20113 0.02908 -0.55010 103 156 153
-0.51024 -0.18364 0.17941 132 216 211
-0.48806 -0.18070 0.20760 0 76 162
-0.48461 -0.16582 0.25034 124 178 178
-0.27577 -0.09004 0.79424 47 105 136
0.07649 -0.10467 0.35884 186 147 77
-0.38849 -0.20543 0.21660 120 189 201
-0.44241 -0.17279 0.26724 4 61 76
-0.52283 -0.17569 0.21276 91 131 119
0.16115 -0.05336 -0.31619 0 31 53
-0.48704 -0.17422 0.20337 76 125 128
0.29692 0.19336 -0.29358 173 207 197
0.11541 -0.07871 -0.20048 88 67 47
0.32715 0.24707 -0.00025 50 61 59
0.35294 0.23236 -0.31170 14 0 2
0.29298 0.17706 -0.33107 244 245 227
0.32188 0.14113 0.02508 0 22 5
0.32666 0.15996 -1.04303 6 9 0
-0.28528 -0.10874 0.29641 19 182 238
0.11427 -0.07787 -0.20042 175 171 155
-0.14079 -0.13564 0.49073 115 179 192
-0.22713 -0.16866 0.09258 95 128 118
0.28915 0.18156 -0.48307 84 101 84
-0.01742 -0.17190 0.20454 112 181 191
-0.50985 -0.19288 0.17704 218 200 143
-0.29494 -0.01619 0.64313 109 144 111
0.10717 -0.05966 0.38142 127 105 72
0.40066 0.14099 -0.17064 0 18 18
0.30541 0.21595 -0.29301 231 188 157
-0.54144 -0.18908 0.23782 30 27 0
0.38502 0.21360 -0.24140 0 2 0
-0.39254 -0.19210 0.24661 75 146 139
-0.16452 -0.17267 0.03476 0 59 78
-0.00125 -0.14425 -0.03852 95 186 234
-0.12141 -0.18156 -0.03376 3 40 84
-0.09480 -0.17803 -0.00063 0 43 103
0.17803 -0.02742 -0.31002 14 25 2
-0.41064 -0.17657 0.38530 90 124 144
0.11074 -0.08382 -0.25681 158 197 197
-0.46077 -0.12571 0.46586 0 24 31
0.37800 0.06201 0.25380 139 200 198
0.21310 0.03223 -0.48113 98 159 159
0.27429 0.19949 -0.35295 152 164 146
0.09690 -0.09254 0.27785 0 25 16
-0.42137 -0.03349 0.50034 122 178 181
0.20326 -0.03422 -0.00044 125 171 154
0.22473 0.04939 -0.29031 0 35 23
-0.29213 -0.08231 0.86864 0 62 86
-0.27872 0.10278 0.88048 170 224 226
0.24480 0.12864 -0.60392 13 25 7
0.46794 0.17022 -0.31178 48 47 34
-0.39149 0.01220 0.55544 98 156 157
-0.49143 0.13885 0.89169 0 37 57
-0.40284 0.00404 0.57138 81 154 155
-0.36441 0.03670 0.51836 168 180 150
-0.35127 -0.08821 0.61043 1 71 71
0.01712 -0.13482 0.17217 12 0 0
0.36259 0.17337 -0.42884 209 243 224
0.34891 0.13723 -0.63253 198 218 198
0.28399 0.18460 -0.18444 196 218 193
0.36773 0.13189 -0.22231 235 241 228
0.11405 -0.07718 -0.27410 199 203 171
0.20974 0.06883 -0.64274 142 183 177
0.29312 0.12363 -0.03336 0 24 23
-0.29439 -0.18848 0.11777 25 8 0
0.27832 -0.05206 0.23247 89 143 147
-0.49984 -0.17797 0.20518 6 17 10
0.32197 0.24593 -0.27499 157 184 181
0.22558 0.10605 -0.86739 208 222 175
0.37695 0.22807 -0.39300 36 51 34
0.02292 -0.13272 0.16663 103 81 66
-0.28543 -0.17867 0.12578 107 184 180
0.14410 -0.08680 0.10648 57 62 56
0.36827 0.12621 -0.22375 0 0 0
0.29612 0.05243 -0.19015 104 229 230
0.29268 0.19512 -0.32045 173 220 221
-0.43480 -0.19248 0.19890 5 13 0
0.17541 -0.00971 -0.27452 91 91 66
0.30033 0.20546 -0.35313 91 106 108
0.32102 0.15991 -0.61779 245 246 225
-0.48191 0.11938 0.92290 113 166 180
-0.50656 -0.18319 0.19944 16 59 67
-0.27824 0.06197 0.69349 101 166 165
0.28096 0.18126 -0.37971 0 6 12
-0.49559 -0.01241 0.86580 174 161 144
-0.49949 -0.18714 0.20594 6 10 14
-0.43357 -0.12120 0.37243 184 232 230
0.30772 0.24373 -0.29281 0 0 0
-0.47139 -0.12809 0.34789 150 162 173
0.17098 -0.10934 0.54722 83 108 128
0.42198 0.18359 -0.81430 0 0 0
-0.18916 -0.17209 0.03584 28 110 105
0.49404 0.16791 -0.02769 85 121 116
0.31979 0.09304 -0.12215 0 11 4
-0.25505 0.14227 0.75827 147 196 203
0.03922 -0.13337 0.13663 175 138 90
0.16964 0.31529 -0.35032 41 23 43
-0.12616 -0.17455 0.05888 0 6 0
0.06471 -0.10218 0.11759 34 40 42
-0.29010 -0.00152 0.63688 88 126 104
0.24745 0.06588 -0.32218 106 117 97
0.45812 0.22859 -0.35211 125 155 149
-0.48397 -0.18511 0.19893 0 61 94
0.21642 0.01445 -0.25150 0 9 29
0.39116 0.19357 -0.41667 0 7 0
-0.48071 -0.16123 0.25117 137 191 174
-0.28677 -0.13790 0.35813 121 216 243
0.17600 -0.02750 -0.30983 177 189 163
0.49844 0.12758 -0.40019 122 137 137
-0.20698 -0.16906 0.05308 103 153 149
-0.22730 -0.14147 0.15469 107 150 158
-0.37533 -0.17510 0.24501 131 228 238
0.08852 -0.08814 0.46021 38 93 86
-0.41655 -0.03469 0.43659 213 212 165
-0.09316 -0.18133 -0.01346 7 41 65
-0.47989 -0.14930 0.37818 80 176 193
0.27917 0.28145 0.19956 164 185 172
0.38483 0.12850 0.09614 0 12 9
-0.41376 0.07046 0.92057 119 173 156
-0.12391 0.02051 0.69527 1 105 181
-0.47483 -0.13412 0.26320 17 87 58
-0.45974 -0.13522 0.36763 0 39 68
-0.19752 0.02052 0.69546 0 9 24
-0.45842 -0.11285 0.34144 177 224 225
0.29933 0.22996 -0.31089 9 0 0
-0.44310 -0.17274 0.25405 122 191 199
0.26825 0.13083 -0.02478 196 201 191
0.35326 0.14532 0.13577 0 10 12
-0.42661 0.01750 0.57372 0 0 0
-0.29627 -0.19188 0.16262 72 169 177
0.46628 0.18240 -0.39646 121 139 140
0.11629 -0.07841 -0.21398 2 32 21
-0.37437 0.02360 0.64576 255 255 244
-0.33790 -0.14964 0.53525 137 225 253
0.23365 0.06373 -0.25511 45 54 29
-0.38755 -0.08128 0.77015 100 173 177
-0.53132 0.09718 0.80998 62 70 53
0.34500 0.22498 -0.47313 148 196 192
0.11839 -0.08059 -0.20076 156 184 192
-0.22135 -0.15365 0.19858 132 203 221
0.32842 0.25833 -0.16758 141 153 125
-0.49918 -0.14329 0.31218 71 129 128
0.27014 -0.05715 0.21668 63 50 36
0.50337 0.12996 -0.41010 47 75 62
0.33089 0.05551 -0.01530 0 0 0
-0.50470 0.10662 0.81859 99 109 107
-0.52741 -0.15723 0.26534 152 146 102
-0.12113 -0.18014 -0.02000 116 118 86
0.28554 0.18613 -0.30682 92 120 130
0.27091 0.03156 0.02464 91 149 148
0.05015 -0.13280 0.11809 159 139 106
0.24393 0.14656 -0.60948 19 15 0
-0.39594 -0.19650 0.24350 114 174 186
0.03592 -0.10434 -0.07363 0 25 43
-0.20618 -0.13748 0.37507 0 43 54
0.12039 -0.07644 -0.20448 16 14 6
-0.33580 0.25092 0.70779 113 108 86
0.44033 0.12627 -0.23795 181 207 190
0.17816 -0.05939 -0.20770 185 172 162
-0.36627 -0.19470 0.16842 135 132 102
-0.44093 -0.15516 0.31527 136 226 231
-0.45680 -0.10710 0.39799 39 42 24
-0.45299 -0.15357 0.31007 124 166 182
0.25481 0.13429 -0.07170 75 88 94
-0.38706 -0.18485 0.24157 0 0 31
-0.52723 -0.14347 0.29370 65 109 113
-0.34949 0.03836 0.51383 101 144 160
-0.53080 -0.16962 0.27167 240 255 225
0.32083 0.22236 -0.23230 228 216 196
0.40408 0.15514 -1.08202 84 52 36
-0.44562 -0.18514 0.21221 164 187 173
-0.10208 -0.16734 0.15222 76 159 168
-0.26770 0.12131 0.77344 114 157 175
-0.54337 -0.18978 0.25682 0 67 51
-0.08439 -0.17889 -0.00357 135 105 71
-0.48374 -0.15893 0.31849 0 72 87
-0.33521 -0.18556 0.18955 53 146 171
0.23340 -0.06616 0.17432 255 232 215
0.34273 0.24105 -0.33042 99 124 150
-0.45822 -0.11552 0.52634 0 0 3
0.30320 0.11193 -0.01595 188 244 232
0.38285 0.28157 0.26144 150 170 154
-0.15428 -0.14148 0.21496 0 78 91
-0.02633 0.03386 0.60409 0 6 58
0.36727 0.24429 -0.29787 11 8 18
-0.47718 -0.14073 0.46466 0 25 16
-0.48518 -0.19606 0.17707 112 123 114
-0.36046 -0.16111 0.51270 120 182 192
-0.48916 -0.14977 0.26636 0 33 51
0.28047 0.21027 -0.21642 0 0 1
-0.50572 -0.11070 0.35889 27 0 0
0.16942 -0.02936 -0.31024 128 148 132
0.35075 0.20969 -0.31283 143 185 169
0.47006 0.12276 -0.63848 113 142 145
-0.53032 -0.17711 0.26996 0 40 54
-0.45454 -0.18816 0.20168 113 211 227
-0.24642 0.12330 0.78174 117 174 189
0.26654 0.05088 0.10601 126 122 108
0.28122 -0.03662 0.09599 127 138 159
0.22763 0.22095 0.09058 0 21 38
0.23294 -0.02278 0.04799 0 12 22
0.33873 0.19608 -0.56873 255 255 255
0.31875 0.16139 -0.35028 221 255 255
0.21538 0.07232 -0.36743 164 210 188
0.49307 0.18834 -0.39279 205 191 190
-0.44518 -0.16971 0.24148 144 226 221
-0.37083 0.01825 0.54355 128 220 225
-0.10091 -0.18525 -0.05795 0 35 60
0.06271 0.04082 0.43158 23 35 21
0.22681 0.12937 -0.80011 9 20 9
-0.39379 -0.17312 0.34495 142 187 182
0.49031 0.11191 -0.38546 143 171 162
0.25571 0.18376 -0.48434 159 166 162
-0.09045 -0.18701 -0.06386 0 45 73
0.45637 0.15456 -1.22080 65 67 62
0.25859 0.19176 -0.52391 134 163 160
0.31130 0.12085 -0.12474 2 31 9
0.23471 0.14425 -0.60823 0 16 0
0.28332 0.23692 0.08977 10 38 25
0.19993 -0.01566 -0.24581 13 36 0
-0.48494 -0.18376 0.17501 73 131 166
0.11953 -0.07765 -0.21286 116 137 124
0.12531 -0.06864 -0.31071 215 185 113
0.33194 -0.01030 -0.18968 212 126 48
-0.36758 -0.17378 0.28621 0 25 50
0.21533 0.04063 -0.53738 89 146 165
0.09197 -0.03747 0.50806 86 157 175
0.47685 0.11890 -0.67911 180 190 179
-0.36810 0.05867 0.59170 34 20 0
0.11880 -0.06877 0.20546 0 0 0
0.13556 -0.02819 0.69781 55 97 117
0.12731 -0.06716 -0.30011 218 235 195
0.27343 0.19428 -0.25851 67 49 38
0.24810 0.30000 -0.62350 90 201 220
0.19504 0.03329 -0.55906 101 136 142
-0.31530 -0.18007 0.25417 0 22 35
0.38289 0.07971 -0.10653 105 148 152
-0.10235 -0.18161 -0.04149 0 44 67
-0.53943 -0.17635 0.26425 174 147 119
0.23547 0.16365 -0.12145 148 175 176
0.35470 0.19386 -0.57903 232 232 227
-0.54434 -0.18321 0.25054 180 234 238
0.18172 0.01701 -0.53864 106 82 40
0.24887 0.02043 -0.02762 122 148 129
-0.50407 -0.18695 0.17518 154 175 166
0.37226 0.15842 -0.22562 206 230 207
0.17924 0.00136 -0.45398 0 17 12
0.54053 0.07113 -0.40963 146 168 172
0.15884 -0.06943 0.53357 174 133 86
0.32163 0.15745 -0.56294 0 0 0
0.18062 -0.21816 0.70045 90 167 186
-0.51905 -0.11837 0.28812 65 116 43
0.34798 0.21577 -0.14883 138 179 175
-0.52132 -0.15441 0.24130 147 204 221
0.04506 -0.11366 -0.11164 50 34 35
-0.28984 -0.01768 0.71739 96 110 119
-0.48292 -0.17216 0.27698 135 210 234
-0.30365 -0.08135 0.85017 110 183 205
-0.51505 -0.17111 0.19210 57 7 0
0.19878 0.00517 -0.51853 0 26 7
-0.18390 -0.17601 0.01660 48 108 120
0.52579 0.09565 -0.44167 197 187 183
-0.48525 -0.13036 0.32431 0 2 19
0.37953 0.17648 -0.47823 0 0 0
0.24251 0.04164 -0.40717 20 88 82
0.31268 0.26475 -0.31666 119 148 145
0.28019 0.03229 -0.07502 48 45 17
-0.46099 -0.04112 0.34830 171 193 177
0.46475 0.10991 -0.57423 21 37 25
0.36166 0.15367 -1.06946 4 28 2
0.36399 0.15545 -1.10124 225 218 168
-0.45870 -0.18611 0.19257 103 154 168
-0.11989 -0.18155 0.06900 34 175 227
-0.09911 -0.17986 -0.01309 0 82 102
0.27860 0.24153 -0.70692 148 178 144
-0.32545 -0.19039 0.15089 0 47 57
-0.29551 0.13591 0.78541 107 170 177
0.46988 0.19322 -0.39911 13 20 16
-0.27956 -0.18647 0.19299 30 85 80
-0.25912 -0.12131 0.74382 0 88 96
-0.28801 -0.18816 0.12095 79 154 175
0.19904 0.01792 -0.51986 133 113 100
0.23253 0.31958 -0.38431 167 158 135
0.11570 -0.07795 -0.22107 207 202 199
0.24385 0.26561 -0.52797 37 9 0
-0.48128 -0.12369 0.27922 170 162 92
0.32256 0.17255 -0.62801 5 15 8
0.02924 -0.13721 0.16724 104 118 131
0.15477 -0.09202 0.41031 157 148 123
0.28332 0.19824 -0.34437 41 89 104
0.23335 0.15990 0.05113 0 0 0
-0.40049 0.00848 0.56934 112 189 189
-0.46190 -0.09417 0.34876 69 125 130
0.31985 0.24203 -0.28929 138 135 105
-0.36584 -0.19419 0.17701 107 145 175
-0.46635 -0.11280 0.53074 56 123 101
0.18888 0.00081 -0.43386 106 133 104
0.06762 -0.10050 0.12861 130 102 54
0.27099 -0.00953 0.46764 0 1 0
0.28834 0.20627 -0.33346 180 207 210
-0.35258 -0.00132 0.54919 0 15 9
0.45891 0.24587 -0.21414 81 115 135
0.06070 -0.10055 -0.13774 0 26 31
0.41221 0.15310 -1.05982 38 96 78
0.33618 0.19704 -0.26826 124 167 146
0.28787 0.18621 -0.30323 179 195 185
-0.12236 -0.18315 -0.02464 23 206 244
0.39699 0.24794 -0.42955 225 220 194
-0.20400 -0.12677 0.51746 10 108 120
0.34241 0.10473 -0.32035 197 204 173
-0.50918 -0.18250 0.19687 25 83 91
0.18701 0.00988 -0.41603 151 151 151
0.20901 0.00629 -0.13511 15 30 15
-0.30828 -0.17174 0.28242 90 167 167
0.28690 0.18698 -0.59288 214 255 255
-0.43913 -0.19637 0.18500 36 131 137
0.17741 -0.04025 0.01562 108 145 160
0.22049 0.10063 -0.80763 57 84 81
0.32943 0.22567 -0.21455 159 149 134
-0.20691 -0.04070 0.49439 148 210 203
0.31725 0.19780 -0.29080 138 161 151
0.28651 0.28759 -0.58536 186 159 95
0.24160 0.12818 -0.60444 177 195 194
0.32400 0.20215 0.12837 46 83 66
0.15006 0.31577 -0.32218 174 128 80
0.32400 0.22669 -0.20493 228 216 196
0.06148 -0.10080 0.01324 42 12 0
-0.29355 0.22464 0.89086 171 186 162
0.09969 -0.13795 0.43908 47 29 16
0.20297 -0.10565 0.53675 118 135 152
-0.18161 -0.17949 -0.01070 0 46 48
0.23725 0.34811 -0.29573 163 143 110
0.34289 0.15031 -0.83207 91 103 89
0.43743 0.15214 -1.15196 0 27 29
-0.22324 0.01427 0.71329 0 6 9
-0.44377 -0.18700 0.22180 128 209 220
-0.28088 0.11300 0.86748 125 168 182
0.26673 0.21806 -0.33162 0 0 0
0.21185 0.01109 -0.36414 223 245 245
0.46381 0.15705 -1.19801 28 38 43
0.21582 0.09939 -0.80823 126 112 109
0.20223 -0.02342 -0.32203 49 112 116
0.28746 -0.03696 0.12289 70 80 85
-0.34001 -0.12026 0.41326 93 157 170
0.23461 0.12096 -0.69445 36 58 60
-0.42413 -0.02582 0.49534 0 0 18
0.30819 0.05897 -0.02585 25 40 25
-0.29712 -0.09466 0.38631 137 171 150
0.18609 0.01792 -0.52993 50 73 63
-0.37679 -0.00249 0.56974 90 133 149
0.32816 0.16209 -0.88573 58 82 61
0.47718 0.25960 -0.48000 0 6 107
0.21666 0.34292 -0.44029 40 140 154
-0.22317 -0.15781 0.28907 167 175 158
0.12327 -0.06810 -0.19656 126 128 121
0.22292 0.04600 -0.53989 212 214 207
-0.08619 -0.18055 0.00081 113 188 209
0.39238 0.09363 -0.23650 32 37 29
0.42196 0.14899 0.17318 0 0 0
-0.52939 -0.16446 0.25707 129 175 149
0.09888 -0.09246 0.04949 129 121 96
-0.46291 -0.11887 0.32239 111 128 113
0.42725 0.12238 -0.26245 141 164 156
0.36648 0.10941 -0.21743 4 49 44
-0.33850 -0.18077 0.22796 155 206 222
0.43361 0.24233 -0.21428 31 72 68
0.24217 -0.06526 0.17930 79 92 92
0.04376 -0.14044 0.17074 118 141 148
0.21440 0.06286 -0.25240 105 102 72
0.06000 0.05958 0.52717 0 7 24
-0.52807 -0.09527 0.50571 0 35 42
-0.32717 -0.19278 0.12760 0 35 42
-0.16455 -0.17805 0.00756 117 161 158
-0.29442 -0.14123 0.32359 55 120 119
0.33952 0.16073 -0.88825 18 0 0
-0.33452 0.08662 0.66652 114 186 195
0.07767 -0.13197 0.56139 95 165 193
0.32253 0.10810 -0.07913 160 192 206
0.27758 0.00272 0.00105 108 134 146
0.04187 -0.14481 0.14155 219 182 127
-0.36710 -0.17720 0.32016 13 39 72
0.28188 0.26097 -0.17226 17 47 38
0.19339 0.01680 -0.38869 5 31 8
-0.18245 -0.12223 0.65968 0 0 14
-0.14756 -0.17591 0.01578 99 160 183
-0.49687 -0.17698 0.23019 197 191 175
0.20838 -0.02429 0.05963 99 131 140
0.34116 0.07487 0.39554 149 150 136
-0.21290 -0.17514 0.21803 0 48 61
0.43535 0.14572 -1.21336 136 171 175
-0.48580 -0.13354 0.32048 83 127 138
-0.31424 -0.09616 0.81170 0 44 66
-0.38545 -0.20580 0.21547 74 147 151
-0.24356 -0.16586 0.28979 108 190 206
-0.50024 -0.17125 0.21671 145 141 125
-0.42451 0.16049 0.92589 139 182 186
0.20333 0.06290 -0.38449 45 62 41
-0.30046 -0.19379 0.11553 48 131 140
-0.53411 -0.16536 0.25108 192 255 255
-0.38572 -0.18053 0.25903 0 17 37
-0.27980 -0.17357 0.21340 86 136 128
0.16932 -0.02557 -0.38011 115 151 148
0.00781 -0.13026 -0.00355 141 105 66
-0.18770 -0.17490 0.00033 149 250 255
0.36142 0.15203 -1.10521 0 10 28
0.33032 0.27240 -0.34316 162 168 170
0.11024 -0.10177 -0.04191 143 122 104
-0.50846 -0.14139 0.28720 143 155 123
0.27409 0.20317 -0.14313 99 83 78
-0.41413 -0.18424 0.28014 105 225 232
-0.45210 -0.16209 0.29515 74 155 164
-0.46398 -0.11633 0.48366 56 20 0
0.49383 0.12868 0.14094 142 179 168
-0.48952 -0.13623 0.28209 37 33 0
-0.44203 0.08343 0.89852 115 184 200
-0.54828 0.19413 0.86015 49 104 101
0.16813 -0.02945 -0.36605 0 38 105
0.31872 0.15897 -0.62015 16 10 0
0.50797 0.11781 -0.45321 81 68 54
0.36900 0.08242 0.22689 114 152 161
-0.49491 -0.17192 0.24413 129 173 172
-0.53266 -0.19117 0.18924 233 198 152
0.28631 0.19285 -0.46451 0 0 0
-0.21382 -0.17310 0.03796 158 136 107
-0.53534 0.07389 0.81265 192 186 176
0.01840 -0.12357 0.05027 149 123 81
0.20798 0.04270 -0.43776 18 9 0
0.33868 0.17530 0.17257 29 49 24
-0.43745 -0.15469 0.31417 146 221 225
0.29051 -0.01151 0.01716 122 114 80
0.27822 0.21711 0.10000 105 143 148
0.08265 -0.13207 0.36836 0 22 42
-0.52270 -0.15127 0.23509 60 160 158
-0.34172 -0.12831 0.37421 0 22 35
0.34847 0.22483 -0.11640 15 15 15
0.11477 -0.08462 -0.02770 0 19 32
0.27064 0.18144 -0.47453 0 5 0
0.30117 0.33555 0.28289 151 152 118
0.20380 0.30878 -0.22817 104 141 130
0.22418 0.10529 -0.78847 28 38 33
-0.01496 -0.15208 0.00217 129 141 156
0.33255 0.15785 -0.92543 38 78 117
-0.05285 -0.17032 -0.04280 30 91 114
0.24275 -0.04565 0.59868 135 118 78
-0.15583 -0.14788 0.11505 98 178 194
-0.22901 -0.16715 0.24508 26 54 92
0.43763 0.26701 -0.26330 172 132 83
0.05906 0.05200 0.48035 143 145 136
0.29648 0.23070 -0.28835 0 8 4
-0.39521 -0.17339 0.29124 50 77 74
-0.09270 -0.17634 -0.00065 142 157 140
0.30347 0.17922 0.16580 132 149 134
0.10683 -0.07480 -0.22514 160 159 162
0.17894 -0.02370 -0.30777 175 150 118
-0.50415 -0.18795 0.17290 0 37 68
0.31745 0.18949 -0.39075 145 195 189
0.34359 0.23297 -0.28738 186 174 152
0.27025 0.19651 -0.29161 153 167 157
0.01344 -0.13932 0.17674 51 57 44
0.26455 -0.05259 0.17924 160 166 147
0.18811 -0.01949 -0.31050 142 181 181
0.33199 0.15030 -1.01583 0 39 30
-0.30727 -0.17641 0.24807 96 185 201
-0.46822 -0.18297 0.22745 0 45 57
-0.47790 -0.14230 0.28861 138 162 143
0.11654 -0.08190 -0.06277 18 16 12
-0.51821 -0.18121 0.21383 90 148 156
0.35396 0.16957 -0.58499 239 235 225
0.42638 0.22881 0.03697 0 2 9
0.49848 0.24823 -0.19272 0 1 60
0.16369 -0.06908 0.53664 140 110 71
-0.18740 -0.15515 0.15681 3 68 71
0.37391 0.17103 0.14511 11 65 67
0.05920 -0.12890 0.17296 157 136 116
-0.51297 -0.13367 0.30108 221 222 184
0.39894 0.09784 -0.25578 235 226 217
-0.43536 -0.19245 0.20966 0 35 28
-0.10149 -0.18026 -0.03932 0 34 65
-0.29906 -0.18618 0.18154 89 155 170
-0.40992 0.02732 0.78477 145 208 206
0.19107 -0.06798 0.08958 106 116 117
0.31818 0.16902 -0.59379 207 218 202
-0.30341 -0.17096 0.27378 130 223 252
-0.22061 -0.00088 0.75063 125 183 191
0.39957 0.23150 -0.31452 108 163 178
0.25180 0.26564 0.21385 32 65 63
-0.10973 -0.17863 0.00956 0 49 58
0.51520 0.09669 -0.46600 75 133 136
0.18391 -0.02396 -0.35429 144 165 161
0.12941 -0.05667 0.21549 114 125 116
0.15951 -0.03172 -0.41293 0 16 13
-0.32597 -0.11146 0.80877 145 223 231
0.29118 0.16274 -0.39747 174 151 157
-0.37846 0.00813 0.55572 0 6 10
0.21827 0.09945 -0.83642 101 83 67
-0.49351 -0.17277 0.24483 118 187 195
0.12061 -0.12969 0.33367 166 183 166
0.13870 -0.06807 -0.26430 19 37 6
0.16924 -0.02930 -0.31016 159 196 188
-0.39393 -0.20122 0.22498 0 44 62
0.18450 0.01264 -0.51557 0 0 0
-0.06207 -0.14506 0.07710 67 97 88
-0.26199 -0.15885 0.26441 18 104 121
0.21402 0.08584 -0.70764 0 14 12
0.11573 -0.07933 -0.19935 107 83 68
0.33835 0.04154 0.05245 44 58 52
0.21754 0.05415 -0.37218 0 0 0
0.28853 0.04530 0.09765 140 190 188
-0.10122 -0.14751 0.13235 127 176 186
0.45820 0.15275 -1.25308 49 28 0
0.02413 -0.13291 0.16855 140 113 85
-0.18614 -0.17335 0.06303 94 199 225
0.26863 0.14410 -0.84769 176 217 217
0.27361 0.20857 -0.37887 214 255 255
-0.44222 0.22217 0.85287 170 173 157
0.38851 0.17933 -0.38491 0 19 19
-0.48826 -0.17029 0.26998 138 185 188
0.51432 0.13342 -0.45142 132 151 144
-0.33629 0.04303 0.91272 170 217 193
-0.30719 -0.18945 0.13271 148 205 216
-0.54117 -0.17918 0.25366 165 183 133
-0.26558 -0.07554 0.43983 136 159 145
-0.37749 0.00656 0.55266 0 9 23
0.37314 0.15434 -1.03037 0 0 0
-0.45228 -0.11462 0.32009 0 19 28
0.23697 0.13101 -0.60395 0 0 0
-0.27568 0.12070 0.80141 118 183 186
-0.42923 -0.03064 0.50128 0 1 5
0.16827 -0.02808 -0.38400 0 66 83
0.17145 0.31228 -0.30212 225 187 101
0.23759 0.10459 -0.10170 14 14 0
-0.46226 -0.12319 0.29675 94 97 81
0.11873 -0.10323 0.33710 225 223 235
0.00758 -0.13503 -0.08981 180 237 207
-0.29616 -0.19367 0.17752 0 38 52
0.41046 0.14447 -1.14684 148 150 145
-0.07700 -0.17542 0.03214 123 169 141
0.25232 0.16956 -0.47619 147 162 147
-0.44553 0.08076 0.88541 103 161 160
-0.52477 -0.15574 0.28906 132 172 163
0.30609 0.18419 -0.56494 193 221 206
-0.52418 -0.15441 0.41811 8 51 59
0.24104 -0.01352 0.32251 0 0 0
0.23173 0.07758 -0.26055 105 138 122
-0.31772 -0.17298 0.20134 8 106 120
0.05564 -0.13424 0.17830 176 133 114
0.32905 0.04579 0.35972 194 170 128
0.36886 0.08122 0.23110 145 190 185
0.34317 0.15104 -0.16568 41 9 0
0.38590 0.24069 -0.09579 16 36 35
0.34407 0.30144 0.24211 91 102 100
0.28925 0.16683 -0.46979 136 142 127
-0.41222 -0.17516 0.28809 0 39 66
0.34844 0.19882 -0.24692 212 214 205
-0.15592 -0.17358 0.10445 64 152 184
0.09695 -0.06338 -0.19601 132 168 201
0.10968 -0.07705 -0.25330 0 60 105
-0.45951 -0.09893 0.35590 22 81 73
0.45302 0.24622 -0.35082 18 58 65
-0.09903 -0.17484 -0.04140 221 218 190
0.27170 0.19643 -0.30529 141 161 162
0.22455 0.06064 -0.26958 27 44 27
0.36105 0.13559 0.06885 178 173 151
-0.39566 -0.19206 0.22111 0 40 54
0.46133 0.15429 -1.27031 46 108 146
0.42505 0.28891 -0.65977 26 82 104
0.25147 0.14697 -0.12459 51 59 44
0.21418 0.05520 -0.61303 52 16 7
0.24099 0.04753 -0.28635 18 64 45
0.24887 0.17602 -0.03955 179 202 188
0.12600 -0.08423 -0.08011 30 19 13
0.16440 -0.03278 -0.39814 0 14 0
0.44475 0.24014 -0.25870 40 0 0
0.42479 0.20111 -0.83609 206 202 169
-0.31692 -0.16516 0.26266 54 125 116
-0.49955 -0.17891 0.22144 143 210 211
0.33942 -0.04121 0.46264 0 11 20
0.46190 0.18217 -0.40533 203 210 209
-0.45234 -0.18608 0.21754 134 225 216
0.35490 0.15623 -0.39232 136 147 142
-0.17636 0.06565 0.93430 66 79 53
0.39551 0.14606 -1.17302 60 30 32
-0.50489 -0.18785 0.17293 0 53 90
0.11015 -0.11828 0.29522 181 190 195
0.32807 0.17088 -0.47820 123 166 177
-0.38083 -0.16595 0.32459 137 194 188
0.09442 -0.11689 0.34110 96 167 208
0.37452 0.22687 -0.13289 157 193 192
0.30733 0.00275 0.46131 0 44 49
-0.43734 -0.19106 0.22651 57 120 144
-0.16111 -0.16152 0.07596 90 125 100
-0.32892 -0.18919 0.18589 32 44 28
-0.50640 0.11209 0.93114 165 236 227
-0.45325 -0.00406 0.39567 146 228 225
-0.33640 0.14968 0.65790 7 0 0
0.44227 0.14322 -0.94419 131 141 130
-0.09393 -0.17849 -0.00978 40 74 55
0.08702 -0.07057 0.23295 131 127 111
0.38838 0.21185 -0.29904 111 144 137
-0.49913 -0.19168 0.19139 116 166 158
0.32567 0.15040 -1.03867 15 10 5
0.10505 -0.09032 -0.09467 43 87 148
-0.10860 -0.17888 0.00847 65 69 22
0.22547 0.10499 -0.79359 0 0 0
-0.32959 -0.18741 0.22259 80 177 181
-0.08867 -0.17786 -0.01636 99 154 171
0.19604 0.01115 -0.52007 66 143 162
0.33538 0.21419 -0.27655 154 202 198
-0.18854 -0.17449 0.00658 111 171 181
-0.49454 -0.12226 0.35180 212 200 174
-0.51437 -0.13455 0.35195 171 170 150
-0.24712 -0.01852 0.62349 64 146 169
-0.09855 -0.18371 -0.06942 131 188 184
0.22669 0.09335 -0.53158 228 228 199
0.26594 0.13456 -0.84795 193 204 202
0.01001 -0.14247 0.15362 27 29 26
0.07500 -0.13692 0.29597 69 56 23
-0.36270 0.07811 0.72357 0 18 27
0.42361 0.19288 -0.39510 201 199 195
0.58192 0.25151 -0.68387 101 61 0
0.16665 -0.02964 -0.38385 0 38 29
0.26923 0.22153 -0.31453 195 195 186
-0.29523 0.03469 0.68064 119 152 152
0.18912 -0.06152 -0.12865 158 128 97
0.29919 0.19695 -0.36955 185 203 204
0.37391 0.17482 0.13379 118 135 111
0.13676 -0.07042 0.35600 76 82 69
-0.53511 -0.17465 0.26190 125 123 121
-0.48493 -0.09893 0.37407 134 178 186
0.32815 0.14718 -0.23909 0 30 16
0.38868 0.14470 -1.06184 103 102 91
0.13479 -0.03733 0.61254 115 123 108
0.32591 0.23332 -0.22515 109 130 117
0.29154 0.23829 -0.28226 166 212 202
-0.52999 -0.16248 0.28445 168 216 233
0.18057 0.00504 -0.56174 0 34 33
0.28446 0.18612 -0.48091 12 40 55
-0.54120 -0.18116 0.23792 54 44 29
0.24870 0.14889 -0.61170 205 231 241
-0.47750 -0.09583 0.45100 97 85 65
-0.00053 -0.12946 -0.12484 32 76 78
0.29762 0.19126 -0.46557 162 168 155
0.14910 -0.02374 0.40393 22 0 0
0.02094 -0.12808 0.16669 127 191 165
-0.53933 -0.17740 0.25549 196 165 104
0.37109 0.16375 -1.04719 158 131 62
-0.52473 -0.17394 0.22346 150 154 160
0.43813 0.14864 -1.14095 5 14 19
0.09892 -0.11282 0.68643 99 105 111
0.26938 0.00654 0.41770 88 127 125
-0.26227 -0.16272 0.34172 103 179 191
-0.50261 -0.18238 0.18103 0 20 21
-0.29754 -0.18183 0.12041 84 137 155
-0.29555 -0.18720 0.22804 118 203 222
0.53598 0.06091 0.31721 0 36 88
0.30964 0.12105 -0.13325 0 0 0
0.23648 0.26754 0.02297 27 56 53
-0.26867 -0.16208 0.16595 0 39 61
-0.50011 -0.14555 0.42466 80 162 185
0.20722 0.06766 -0.25341 130 154 154
-0.24082 -0.17499 0.09431 0 0 35
-0.23936 -0.12432 0.52976 94 189 212
-0.29702 -0.17608 0.28088 0 36 28
-0.42695 -0.18470 0.28211 89 201 217
-0.53214 -0.18571 0.19445 183 190 180
0.28130 0.17829 -0.47517 0 7 0
0.05743 -0.10221 0.30944 205 212 206
0.33343 0.21845 -0.28148 0 0 0
0.34960 0.16558 0.04504 31 43 15
0.32250 0.26257 -0.45320 173 168 163
0.26676 0.21539 -0.33973 181 188 178
-0.34036 -0.15266 0.80573 104 200 194
0.45723 0.15287 -1.24459 46 63 46
-0.19564 -0.17290 0.01365 72 125 90
0.37246 0.07154 0.21503 125 170 165
-0.38861 0.09995 0.79406 130 205 209
0.15023 -0.06540 -0.28808 0 67 97
0.00464 -0.13825 -0.05051 0 34 30
0.11617 -0.07835 -0.24606 122 197 194
0.32210 0.26105 0.32130 123 144 135
-0.50042 -0.14825 0.31911 162 142 131
0.27124 0.05080 0.08245 127 161 147
0.30861 0.10502 -0.01156 64 104 88
0.21619 0.08574 -0.75930 52 183 177
-0.10339 -0.18553 -0.06806 0 71 80
-0.43497 0.09243 0.81855 77 153 159
0.01800 -0.13050 0.17047 4 0 0
-0.51448 -0.12379 0.33743 107 182 206
0.27097 0.01236 0.41787 148 188 179
-0.21642 0.02715 0.84239 117 191 222
0.20372 0.05953 -0.63770 31 57 63
0.23115 0.01912 -0.30460 114 143 140
0.47116 0.26133 -0.37611 192 242 255
0.15052 -0.08342 0.10948 227 202 172
0.09750 -0.08379 -0.20817 68 40 17
-0.51112 -0.14274 0.31180 60 5 0
0.07863 -0.10403 -0.02123 215 193 162
0.17934 -0.03090 -0.28646 105 119 109
0.39594 0.14520 -1.17503 0 0 0
0.21040 0.18156 -0.02257 1 29 14
-0.47738 -0.13946 0.40182 164 163 114
-0.33009 -0.10241 0.41347 123 181 161
-0.33825 0.06121 0.69253 0 9 23
0.25922 0.19711 -0.38142 0 0 0
0.18219 0.00782 -0.42523 0 0 0
0.06165 -0.13704 0.17750 133 136 120
0.52633 0.24352 -0.17592 0 0 44
-0.39089 -0.12493 0.38063 0 21 50
-0.35668 -0.18884 0.22525 0 27 35
-0.11766 -0.16932 0.15666 56 108 135
0.36903 0.23150 -0.33086 255 255 249
0.24730 0.20197 -0.33437 235 217 201
0.30054 0.19550 -0.40174 0 1 0
-0.20610 -0.13590 0.55245 64 173 192
0.12244 -0.08729 -0.10481 168 151 132
0.28878 0.25535 -0.73447 147 97 42
0.11880 -0.10647 0.53984 85 81 71
0.30289 0.21456 -0.39538 47 98 78
0.28156 0.22473 0.12401 172 210 215
0.35696 0.16734 -0.93514 127 164 153
0.34005 0.23427 -0.46375 157 168 166
0.44156 0.15426 -1.16870 26 58 56
-0.01569 -0.15578 0.11296 0 55 93
0.31492 0.15284 -0.61433 170 182 162
-0.49540 -0.16922 0.22943 173 229 253
-0.29799 -0.16509 0.34395 0 17 32
0.25264 0.02607 0.06086 0 47 40
0.45160 0.13006 -0.64151 6 20 35
0.12090 -0.08551 -0.09621 208 180 161
0.44243 0.13426 -0.57859 30 32 25
-0.35686 -0.17988 0.22060 160 244 241
0.35560 0.21794 -0.08708 55 112 106
0.32974 0.24823 -0.29040 219 218 207
0.34498 0.26839 -0.15129 11 0 0
-0.02292 -0.16063 0.06697 106 120 133
0.10539 -0.08271 -0.25576 54 45 32
-0.54415 -0.19188 0.25525 65 120 115
0.21355 0.08739 -0.26158 144 139 111
0.18897 -0.04319 -0.04465 0 0 0
-0.47887 -0.17502 0.23289 162 142 126
-0.10216 -0.17191 -0.00738 82 63 22
-0.43389 0.00195 0.60763 134 233 242
0.32649 0.13832 -0.39319 0 24 17
0.36478 0.12493 -0.37818 181 214 202
-0.29472 -0.19087 0.15766 10 69 59
0.16006 -0.03605 -0.39480 0 0 0
0.27741 0.17837 -0.37566 88 78 74
-0.05762 -0.16655 -0.02621 90 71 44
0.11852 -0.05829 0.21615 115 126 112
0.24060 0.20124 -0.30199 0 0 11
-0.48554 -0.19606 0.17729 182 163 120
0.53017 0.27110 -0.14610 0 22 65
0.19491 0.11629 -0.49191 0 10 35
0.12653 -0.13138 0.17736 0 54 76
0.11597 -0.05625 0.49531 126 121 99
-0.10236 -0.18160 -0.04148 0 50 61
-0.43960 -0.19616 0.18516 212 189 165
0.19227 -0.06889 0.08478 0 0 1
-0.11805 -0.17729 0.01555 84 233 245
-0.49585 -0.17449 0.25950 75 65 61
0.19943 -0.02249 -0.24691 0 16 0
-0.07240 -0.15081 0.08363 30 60 51
0.22519 0.00000 -0.12404 0 14 12
-0.27928 -0.17521 0.17926 61 110 120
-0.34306 -0.13999 0.40455 14 113 139
0.26007 0.13088 -0.91717 14 5 0
0.27966 0.22307 -0.31656 14 34 16
-0.21198 -0.17178 0.07018 0 35 35
-0.44099 -0.06575 0.73835 51 96 86
-0.42964 -0.17988 0.23844 136 234 248
0.42976 0.05535 0.15107 56 112 117
-0.48593 -0.19786 0.17661 20 10 10
-0.42383 0.00655 0.84571 143 173 164
0.22157 0.10672 -0.77113 0 0 0
-0.48300 -0.16158 0.27430 101 164 164
0.04146 -0.11462 -0.12411 236 181 130
-0.16205 -0.17419 0.07211 0 44 38
0.35085 0.06558 0.22108 110 152 143
0.36164 0.14302 -0.21840 61 104 106
0.51557 0.24132 0.09057 0 33 57
0.29274 0.18779 -0.41454 157 156 145
0.14083 -0.06559 -0.20154 174 196 198
0.24960 -0.01735 0.31477 0 5 3
0.25347 0.18688 -0.48411 139 144 138
-0.37099 -0.15169 0.26616 0 17 16
0.43155 0.18293 -0.23376 0 26 74
0.34761 0.14653 -0.44563 0 7 0
-0.52739 -0.16455 0.26175 122 160 134
-0.49695 -0.15892 0.26436 112 185 189
0.06418 -0.10644 0.13173 94 93 73
-0.23405 -0.15433 0.20059 89 147 155
0.16167 -0.05553 -0.21948 153 123 92
0.38211 0.16567 -0.60039 154 180 188
0.18051 -0.03852 0.58513 150 161 145
0.07572 -0.10782 0.36187 146 96 62
0.04777 -0.13529 0.17539 193 198 211
0.27334 0.19934 0.09356 190 207 190
0.39564 0.20288 -0.36928 127 138 131
0.24945 0.03380 0.05347 0 33 25
0.28026 0.18344 -0.43707 16 0 0
0.30313 0.21265 -0.28603 187 206 216
0.22086 0.10327 -0.82648 57 59 52
0.19498 -0.00453 -0.35770 60 94 73
-0.39121 -0.20403 0.21419 123 195 206
0.32226 0.22963 -0.29071 243 243 214
-0.50708 0.04483 0.90729 138 132 118
0.22589 0.03044 -0.53464 12 56 94
0.36464 0.10040 0.00413 17 61 60
-0.30853 -0.17634 0.18045 174 181 154
-0.52689 -0.15365 0.26194 0 0 0
-0.37797 0.06135 0.90508 4 51 27
-0.02804 -0.15513 0.08100 113 110 163
-0.41741 -0.20919 0.18906 0 32 82
-0.41992 -0.20797 0.20570 84 178 198
0.46543 0.15495 -1.25362 117 101 64
-0.40234 -0.20352 0.22337 0 43 52
0.28031 0.16904 -0.40472 164 176 185
-0.35626 0.13283 0.93049 100 149 152
0.25750 -0.00587 0.31096 76 104 98
0.06820 -0.10713 -0.12909 0 47 0
0.30798 0.04381 0.08197 32 67 48
0.26536 0.16798 -0.35441 218 226 213
0.20349 0.02588 -0.42566 0 27 3
0.27858 0.20900 -0.36257 0 25 25
0.34932 0.24632 -0.48561 0 0 0
-0.43189 -0.14989 0.27385 0 11 44
-0.41967 -0.02841 0.49543 149 197 195
-0.38390 -0.19177 0.40164 102 161 182
0.00914 -0.13242 -0.00917 255 192 116
0.33009 0.14721 -0.98491 0 42 35
-0.50638 -0.13351 0.34859 143 201 159
-0.31495 0.14361 0.78125 0 9 17
-0.27808 -0.17583 0.13389 86 205 230
0.21959 0.33882 -0.36739 139 130 121
0.24237 0.21962 -0.34702 0 10 15
0.24360 -0.05119 0.15290 22 3 0
0.37807 0.18142 -0.82227 63 82 69
-0.33825 0.14585 0.91594 92 205 209
0.38498 0.17738 -0.82541 0 0 0
-0.32003 -0.18525 0.13963 99 127 135
-0.39409 -0.18470 0.24830 176 192 157
-0.48758 -0.18436 0.20630 181 190 163
0.34620 0.26552 -0.14243 1 4 0
0.26532 0.18923 0.09265 166 211 208
0.39508 0.22338 -0.24262 100 102 78
0.03380 -0.14894 0.17369 96 120 118
-0.24208 -0.10846 0.38695 91 166 183
0.20140 -0.05539 0.62430 158 130 82
-0.41561 -0.15957 0.28313 206 211 201
0.16331 -0.02817 -0.32892 102 149 150
0.35967 0.13998 -0.24242 0 40 25
-0.49955 -0.16936 0.24396 0 43 50
0.21991 0.10064 -0.79837 131 134 116
0.36600 0.10220 -0.08617 130 117 86
-0.39053 -0.00541 0.57324 113 176 174
0.37591 0.15145 -1.12979 0 0 0
-0.38777 -0.17006 0.31627 0 72 73
0.36998 0.15514 -1.01229 0 8 0
-0.15552 -0.17825 -0.00089 0 0 0
0.11490 -0.07839 -0.20051 169 155 133
0.13615 -0.04313 0.57985 7 9 9
0.18937 0.00260 -0.37789 158 179 166
0.11417 -0.07961 -0.20081 141 148 140
0.32445 0.16659 -0.36409 0 2 0
0.26003 0.16550 -0.38900 170 202 204
-0.48246 0.01924 0.92734 142 134 113
0.41719 0.23317 -0.31129 112 126 118
0.32143 0.27623 -0.18318 164 167 146
0.56119 0.26524 -0.11480 0 62 60
-0.13455 -0.16401 0.14019 0 30 53
0.22102 0.00312 -0.14006 147 156 125
0.32232 0.02365 -0.00458 92 140 134
0.56764 0.08008 0.23591 0 30 53
-0.49261 -0.16119 0.25407 11 18 58
-0.55251 -0.19796 0.21134 140 205 208
0.35539 0.15521 -0.59447 184 213 214
0.15605 -0.07227 -0.06206 233 203 176
0.30279 0.23958 -0.27911 191 223 221
-0.44537 -0.18203 0.24826 122 177 174
0.07880 -0.17365 0.23948 0 74 98
-0.44643 -0.18261 0.20689 158 162 132
0.35321 0.23359 -0.28386 0 0 0
0.27125 0.17413 -0.36020 0 0 0
0.31256 0.15265 -0.96332 0 7 0
-0.49802 -0.18787 0.19578 137 193 178
-0.47157 -0.10033 0.50684 164 206 194
0.11512 -0.06055 0.36962 18 2 0
-0.32740 -0.19062 0.13281 125 205 223
-0.41366 -0.05626 0.57505 127 172 169
0.60849 0.21614 -0.68924 35 10 32
0.32406 0.12935 -0.61536 91 147 155
0.47310 0.13398 -0.44906 155 155 124
0.32956 0.18872 -0.20245 0 1 0
0.02084 -0.12193 -0.12507 7 11 34
0.03950 -0.12658 0.17718 109 95 73
-0.38883 0.15079 0.93961 136 194 199
0.24444 -0.09486 0.17249 0 78 97
0.26902 0.17957 -0.59456 134 137 123
-0.10424 -0.18101 -0.04709 119 247 255
0.25003 0.12006 -0.06491 3 39 36
0.35769 0.16561 0.19014 0 8 1
0.34970 0.17994 -0.63740 81 101 106
-0.19364 -0.14379 0.56051 104 195 211
-0.10644 -0.18321 -0.05350 164 182 91
-0.48961 -0.12771 0.31593 122 133 115
0.27933 0.21145 -0.35707 0 18 19
0.31303 0.13346 -0.12090 121 119 61
0.17441 -0.06288 -0.13138 35 15 2
0.25041 0.12009 -0.78269 88 148 164
0.04295 -0.11155 0.27626 106 139 166
0.32914 0.24685 -0.29709 155 183 189
0.22431 -0.03753 -0.01854 66 120 126
0.28889 0.08781 -0.11443 136 186 178
0.32260 0.20517 -0.28232 215 200 186
-0.49431 -0.17906 0.20414 145 198 191
-0.18002 -0.05103 0.45933 108 152 158
0.45921 0.15830 -1.24045 192 189 167
0.26670 0.17237 -0.34989 164 187 175
-0.49440 -0.17275 0.21749 0 159 224
-0.49368 -0.14278 0.27199 185 164 125
0.31256 0.09920 -0.01968 0 11 0
-0.17381 -0.15564 0.08320 10 4 0
-0.40142 -0.17912 0.34016 187 231 233
0.37199 0.08117 -0.10786 22 73 55
-0.36074 0.24007 0.70235 123 110 26
0.18842 0.00520 -0.41596 102 157 168
0.32834 0.18176 -0.42364 0 0 0
-0.52709 -0.15671 0.26783 0 33 60
0.24924 0.12769 -0.36660 115 137 135
0.20559 0.03030 -0.36795 0 18 29
0.24767 0.13588 -0.64240 72 123 137
0.32341 0.05492 0.27593 99 103 77
-0.24284 -0.16887 0.19487 120 196 202
-0.38272 -0.19866 0.24193 132 157 152
-0.30922 -0.19212 0.16743 213 212 140
0.25010 0.07692 -0.52361 0 23 1
0.14332 -0.08668 0.11813 209 214 213
0.04856 -0.13929 0.18253 0 0 23
-0.36472 0.06226 0.70543 78 150 159
-0.44776 -0.15954 0.33936 89 167 234
-0.48440 -0.17402 0.19663 0 13 10
-0.52498 -0.15859 0.26652 185 170 130
0.11490 -0.07838 -0.23955 5 24 36
0.32990 0.17551 -0.56557 232 255 239
0.31302 0.25364 0.09536 127 139 111
-0.21672 -0.15159 0.26499 119 172 190
0.17952 0.00502 -0.40691 0 2 0
-0.44498 -0.18113 0.21600 162 251 234
0.11995 -0.08088 -0.20107 187 165 136
-0.10664 -0.18353 -0.05568 99 123 127
0.18115 -0.02694 -0.34232 0 6 45
0.07337 -0.07994 0.26425 2 56 44
0.36699 0.17698 0.12827 4 23 14
-0.10798 -0.17281 0.00445 21 169 138
-0.08686 -0.18001 -0.02551 118 187 195
0.23762 0.16055 -0.13593 0 13 5
-0.50016 -0.14687 0.31020 103 207 215
0.00808 -0.14350 0.15601 131 133 130
0.34401 0.18546 -0.48179 64 85 74
-0.46331 -0.10502 0.42800 107 153 168
-0.49952 -0.18612 0.20711 66 129 136
-0.34844 0.08371 0.72275 173 223 215
-0.49636 -0.14760 0.25814 98 155 147
