ply
format ascii 1.0
element vertex 1371
property float x
property float y
property float z
property uchar red
property uchar green
property uchar blue
end_header
-0.37554 -0.21908 -0.57728 88 154 167
-0.39693 -0.12033 -0.54335 0 7 29
-0.32911 -0.04879 -0.53490 112 159 160
-0.30041 -0.10170 -0.58986 120 137 120
-0.31047 -0.06829 -0.55060 109 155 174
-0.38128 -0.12036 -0.55337 83 118 126
-0.38495 -0.07967 -0.53096 14 28 39
-0.45173 -0.21627 -0.54530 0 20 45
-0.40512 -0.10584 -0.52474 11 21 10
-0.38334 -0.04407 -0.51769 104 84 77
-0.31249 0.00868 -0.47359 90 72 42
-0.38714 -0.04419 -0.52694 93 61 37
-0.35836 -0.08566 -0.55512 65 50 40
-0.45103 -0.04948 -0.49195 40 85 80
-0.38407 -0.08179 -0.53105 16 1 0
-0.39870 -0.03232 -0.49947 84 75 98
-0.38440 -0.04879 -0.53062 12 12 12
-0.33349 -0.04787 -0.53726 17 59 50
-0.37669 -0.06896 -0.51480 102 76 57
-0.37117 -0.11807 -0.55227 84 107 99
-0.37791 -0.12070 -0.54612 95 125 119
-0.31786 -0.07206 -0.54990 14 18 0
-0.40013 -0.04281 -0.50242 123 105 73
-0.37919 -0.05008 -0.52443 6 2 0
-0.34733 -0.18425 -0.57814 134 204 202
-0.39269 -0.09797 -0.53286 97 113 110
-0.38840 -0.23102 -0.56292 67 134 140
-0.46684 -0.01365 -0.46109 126 150 129
-0.34890 -0.04559 -0.52308 66 112 95
-0.46576 -0.00309 -0.45919 52 54 26
-0.37177 -0.10035 -0.55005 103 105 102
-0.37160 -0.10768 -0.55020 3 0 8
-0.37955 -0.07696 -0.52304 49 61 74
-0.44403 -0.16514 -0.52801 0 23 40
-0.34874 -0.03911 -0.50563 110 121 110
-0.38294 -0.10447 -0.53989 0 23 49
-0.39856 -0.09774 -0.52540 45 28 9
-0.35831 -0.11535 -0.56193 84 139 150
-0.35941 -0.03671 -0.51796 18 23 15
-0.35264 -0.03395 -0.50681 72 106 124
-0.38344 -0.10952 -0.54079 94 133 129
-0.37134 -0.19743 -0.58562 0 43 64
-0.36978 -0.09586 -0.55318 90 88 51
-0.39798 -0.07829 -0.52573 102 104 72
-0.40762 -0.10853 -0.54210 81 103 128
-0.38032 -0.06787 -0.51893 118 92 73
-0.41027 -0.03474 -0.50505 44 87 136
-0.31546 -0.08179 -0.55136 0 27 21
-0.41446 -0.04263 -0.50928 102 69 27
-0.34062 -0.01086 -0.46673 101 94 55
-0.33488 -0.02996 -0.47752 89 105 97
-0.34927 -0.02660 -0.49318 12 10 2
-0.35622 -0.18392 -0.58900 71 144 148
-0.38372 -0.10451 -0.54677 92 88 74
-0.42565 -0.16669 -0.53334 59 132 154
-0.33931 0.02163 -0.43445 147 137 88
-0.32985 -0.01001 -0.49461 91 53 10
-0.43912 -0.21508 -0.53112 0 73 100
-0.35011 -0.01806 -0.47715 70 78 63
-0.43447 -0.02778 -0.49771 189 156 118
-0.33093 0.01136 -0.45992 23 67 103
-0.38107 -0.06422 -0.52775 116 97 74
-0.41117 -0.03624 -0.50616 70 109 124
-0.34809 -0.00756 -0.47582 119 90 42
-0.44618 -0.03051 -0.47472 0 19 36
-0.40499 -0.10771 -0.53611 87 109 130
-0.38239 -0.13489 -0.55542 87 138 158
-0.18018 -0.17971 -0.66679 0 19 17
-0.36433 -0.09768 -0.55102 90 84 72
-0.35753 -0.05255 -0.51843 50 104 133
-0.34592 -0.05509 -0.52658 0 5 27
-0.45974 -0.00422 -0.45567 32 60 51
-0.38722 -0.07339 -0.53187 79 97 121
-0.33190 -0.04788 -0.53877 84 131 132
-0.39642 -0.05532 -0.52022 2 21 35
-0.37039 -0.07673 -0.53657 134 104 73
-0.36076 -0.09798 -0.54650 116 106 88
-0.36117 -0.12367 -0.56084 114 168 177
-0.39944 -0.03205 -0.50019 84 75 98
-0.33228 -0.04772 -0.53928 112 159 160
-0.40725 -0.22846 -0.57309 75 159 154
-0.22877 -0.32997 -0.63630 78 177 203
-0.38190 -0.06212 -0.53953 111 84 56
-0.45134 -0.05068 -0.49102 153 162 133
-0.39098 -0.09255 -0.53984 11 19 29
-0.32673 -0.04480 -0.54409 0 37 49
-0.32536 -0.07776 -0.54875 66 126 142
-0.36466 -0.19606 -0.58171 12 78 89
-0.40595 -0.23033 -0.56492 0 40 41
-0.39968 -0.22862 -0.56316 30 84 69
-0.37658 -0.07548 -0.54423 116 93 71
-0.37026 -0.08965 -0.55114 85 102 112
-0.36409 -0.19933 -0.58117 108 195 203
-0.37516 -0.09070 -0.54667 131 102 91
-0.36848 -0.07370 -0.55167 133 96 69
-0.31076 -0.08214 -0.56242 71 102 109
-0.37885 -0.08211 -0.52415 115 105 99
-0.37263 -0.11547 -0.54906 97 125 131
-0.42063 -0.23573 -0.56568 0 15 50
-0.38828 -0.05696 -0.51196 77 88 83
-0.40518 -0.10880 -0.53897 93 110 141
-0.36273 -0.19892 -0.58243 2 83 96
-0.46400 -0.00645 -0.44282 0 17 46
-0.36637 -0.09494 -0.55491 53 29 14
-0.32068 -0.08299 -0.55345 109 181 196
-0.40653 -0.22820 -0.57241 95 182 174
-0.45038 -0.09510 -0.50944 64 121 138
-0.38714 -0.07116 -0.53514 106 100 84
-0.36970 -0.19927 -0.58642 0 35 43
-0.41113 -0.04309 -0.50650 132 99 57
-0.41215 -0.04396 -0.50572 99 75 31
-0.37619 -0.11474 -0.55350 115 143 149
-0.43361 -0.01472 -0.48029 126 169 175
-0.39119 -0.10735 -0.53029 60 57 33
-0.36501 -0.08438 -0.56345 41 28 20
-0.38941 -0.03252 -0.50445 117 80 25
-0.39153 -0.07235 -0.53737 68 88 109
-0.44354 -0.17326 -0.54719 162 179 160
-0.31869 -0.00175 -0.50298 105 69 28
-0.32620 -0.00717 -0.47127 97 63 30
-0.34877 0.02512 -0.43539 108 110 80
-0.39027 -0.08120 -0.51970 62 49 37
-0.37983 -0.04669 -0.52453 7 8 17
-0.47200 -0.00528 -0.44796 0 0 1
-0.36823 -0.11492 -0.57410 65 129 140
-0.40551 -0.10990 -0.54007 114 123 126
-0.38485 -0.07355 -0.55724 79 61 50
-0.40411 -0.03702 -0.49816 49 110 153
-0.34655 0.02448 -0.43299 122 131 102
-0.33712 -0.03128 -0.52684 12 38 50
-0.34431 -0.05025 -0.53061 0 40 56
-0.35042 -0.18334 -0.58131 0 52 57
-0.31711 0.01452 -0.47176 105 88 67
-0.40338 -0.22899 -0.56786 0 11 4
-0.30237 -0.10168 -0.59226 4 4 0
-0.38147 -0.04539 -0.52901 0 0 0
-0.34810 -0.07143 -0.53976 87 133 123
-0.40883 -0.10704 -0.52137 23 23 16
-0.39293 -0.23122 -0.57106 129 193 184
-0.31683 -0.08242 -0.55518 95 129 145
-0.39502 -0.06038 -0.51880 137 96 60
-0.37684 -0.06385 -0.53676 104 85 62
-0.31313 -0.00923 -0.50105 132 84 29
-0.30951 -0.07014 -0.55159 113 188 209
-0.33099 -0.27349 -0.59882 86 159 184
-0.39011 -0.04259 -0.52382 121 103 87
-0.31092 -0.08833 -0.56058 0 0 0
-0.39002 -0.04254 -0.52374 121 103 87
-0.37329 -0.11788 -0.55473 76 99 91
-0.25058 -0.20908 -0.63174 22 75 68
-0.34456 -0.06973 -0.54161 0 52 44
-0.35516 -0.05552 -0.51790 0 0 27
-0.30540 0.00411 -0.49232 96 68 47
-0.33930 -0.17576 -0.58891 167 201 185
-0.38376 -0.11322 -0.55028 10 11 0
-0.46516 0.00513 -0.44461 0 47 39
-0.40852 -0.16073 -0.55191 59 149 181
-0.38045 -0.07500 -0.54693 56 37 12
-0.08592 -0.42134 -0.62006 27 169 162
-0.36332 -0.09203 -0.54404 22 2 0
-0.38133 -0.08146 -0.52679 124 117 112
-0.37330 -0.10008 -0.55066 30 58 73
-0.38732 -0.04320 -0.52057 110 100 87
-0.47670 -0.00816 -0.43100 10 26 16
-0.31566 -0.06527 -0.55694 107 171 201
-0.46461 -0.00614 -0.44320 8 33 53
-0.36071 -0.19944 -0.57925 0 69 85
-0.46957 -0.00560 -0.45630 60 56 37
-0.36142 -0.08498 -0.55909 65 50 40
-0.31152 -0.00991 -0.49867 135 87 32
-0.42401 -0.02922 -0.48816 157 137 85
-0.38249 -0.04463 -0.51508 121 103 87
-0.45022 0.01537 -0.44596 107 130 120
-0.36409 -0.19788 -0.58162 0 62 73
-0.31205 0.01214 -0.46561 105 88 67
-0.31749 -0.07895 -0.55623 79 155 169
-0.39704 -0.03269 -0.49773 112 103 126
-0.38894 -0.10033 -0.53434 73 80 72
-0.39699 -0.06362 -0.52330 78 58 47
-0.38401 -0.09158 -0.53853 83 66 43
-0.37737 -0.11913 -0.54465 0 37 62
-0.38884 -0.12149 -0.53427 0 7 26
-0.36273 -0.19988 -0.58212 45 127 143
-0.40711 -0.09654 -0.51744 84 97 103
-0.36475 -0.08193 -0.55582 68 40 17
-0.40726 -0.09591 -0.53658 75 85 76
-0.44913 -0.05099 -0.48895 183 192 163
-0.44411 -0.19220 -0.54456 49 131 151
-0.31236 -0.06755 -0.55352 93 139 158
-0.32408 -0.07810 -0.56414 0 28 42
-0.31736 -0.00737 -0.50643 109 57 1
-0.38030 -0.06290 -0.54052 111 94 71
-0.38839 -0.03681 -0.52740 37 1 0
-0.32455 0.01008 -0.46826 119 77 49
-0.38760 -0.05838 -0.53280 48 89 118
-0.47690 -0.00275 -0.45344 0 28 58
-0.38784 -0.06176 -0.51086 121 83 48
-0.39146 -0.02494 -0.49862 97 107 100
-0.38949 -0.11806 -0.53515 82 94 105
-0.41459 -0.03239 -0.47915 158 113 53
-0.33654 0.00757 -0.46428 101 61 12
-0.38663 -0.04988 -0.52852 96 94 108
-0.36355 -0.18851 -0.58154 107 180 184
-0.32229 -0.01313 -0.48536 91 53 10
-0.44250 -0.17026 -0.54856 42 116 149
-0.38091 -0.07493 -0.54775 56 37 12
-0.40232 -0.22910 -0.56673 95 149 134
-0.34299 -0.02756 -0.48665 113 116 100
-0.36461 0.00165 -0.45582 135 101 43
-0.38478 -0.06580 -0.55633 49 22 0
-0.38061 -0.05969 -0.52618 59 90 104
-0.39066 -0.11532 -0.52057 97 118 105
-0.37936 -0.06803 -0.51735 115 84 62
-0.32984 -0.00981 -0.49455 86 53 15
-0.45324 -0.05018 -0.48525 212 192 159
-0.45692 0.00320 -0.44802 0 32 46
-0.33637 -0.04627 -0.52763 0 43 56
-0.44756 0.00780 -0.45582 122 128 132
-0.18121 -0.18033 -0.67039 170 191 182
-0.44809 -0.04927 -0.49019 0 35 33
-0.37173 -0.17875 -0.56881 102 162 176
-0.36298 -0.19858 -0.58246 0 43 56
-0.37254 -0.08916 -0.55418 90 107 117
-0.31729 -0.04430 -0.53575 72 136 166
-0.37620 -0.08998 -0.53985 3 40 59
-0.36335 -0.19828 -0.57641 0 19 39
-0.37992 -0.06263 -0.53740 96 69 41
-0.31743 -0.04430 -0.53577 72 136 166
-0.35953 -0.08541 -0.55402 71 52 31
-0.31523 -0.06534 -0.55642 115 177 207
-0.31480 -0.04870 -0.52763 0 15 27
-0.08819 -0.41700 -0.62691 41 127 133
-0.38728 -0.10063 -0.53375 8 18 11
-0.38305 -0.06662 -0.52205 122 96 77
-0.36267 -0.19874 -0.58201 0 70 82
-0.36608 -0.09677 -0.54840 79 79 52
-0.36515 -0.08792 -0.54896 21 38 69
-0.39524 -0.08888 -0.53563 101 92 74
-0.31495 0.01374 -0.46920 116 90 50
-0.31412 -0.04077 -0.53604 0 46 67
-0.38064 -0.06362 -0.52536 0 0 0
-0.37144 -0.10757 -0.55236 147 144 97
-0.35452 -0.18677 -0.57143 0 32 44
-0.46135 0.00184 -0.44253 34 33 18
-0.34795 -0.18332 -0.57788 35 100 101
-0.40867 -0.06651 -0.51465 93 96 82
-0.41870 -0.10535 -0.53102 47 46 35
-0.38801 -0.09178 -0.53688 78 113 155
-0.38401 -0.06575 -0.52247 35 13 0
-0.31600 -0.08169 -0.55200 0 27 21
-0.36275 -0.08353 -0.55778 47 14 0
-0.39677 -0.00609 -0.47707 55 22 9
-0.36571 -0.18758 -0.58328 24 100 106
-0.39083 -0.04066 -0.52459 0 29 52
-0.39610 -0.07991 -0.52634 103 90 78
-0.36458 -0.14766 -0.57251 0 14 33
-0.38663 -0.09475 -0.53626 9 7 3
-0.38872 -0.08023 -0.51478 116 103 70
-0.38808 -0.07306 -0.53313 83 101 125
-0.38793 -0.11464 -0.53531 83 101 104
-0.32247 -0.04623 -0.53813 0 55 65
-0.37812 -0.05545 -0.52145 95 61 33
-0.38797 -0.09415 -0.53635 93 93 88
-0.37166 -0.07078 -0.54976 60 54 40
-0.40636 -0.02994 -0.50754 84 75 98
-0.40771 -0.09597 -0.51814 101 111 104
-0.33230 0.00688 -0.46171 49 9 0
-0.38163 -0.06152 -0.53905 125 107 75
-0.41736 -0.22894 -0.56340 35 108 103
-0.45410 -0.09118 -0.50876 155 169 132
-0.37660 -0.06650 -0.52384 59 43 9
-0.43277 -0.02832 -0.49593 187 154 116
-0.41494 0.04023 -0.53769 130 89 8
-0.38792 -0.02038 -0.63473 0 18 48
-0.39193 0.05149 -0.56425 1 0 0
-0.41096 0.04373 -0.54753 69 91 91
-0.38755 0.03310 -0.57353 61 101 113
-0.39768 0.01831 -0.57849 90 52 9
-0.38633 0.04222 -0.57245 124 97 62
-0.42408 -0.00271 -0.58076 9 14 13
-0.40046 -0.00800 -0.60435 124 108 74
-0.39733 0.04524 -0.55380 151 101 22
-0.56289 0.05671 -0.54128 67 92 84
-0.40328 0.03886 -0.54964 120 94 54
-0.42516 0.06219 -0.52473 0 0 0
-0.40699 0.02720 -0.56744 73 45 22
-0.39994 0.01937 -0.57606 80 57 31
-0.39500 0.00543 -0.61411 88 76 31
-0.39243 0.00418 -0.61049 79 67 22
-0.42312 -0.00120 -0.58145 105 86 63
-0.38958 0.05178 -0.55963 79 60 13
-0.40711 0.01039 -0.59514 43 71 79
-0.42533 0.06323 -0.52529 132 124 85
-0.42863 0.06179 -0.53561 132 102 27
-0.38586 0.05421 -0.55248 8 0 7
-0.39006 0.04417 -0.57994 67 43 31
-0.40177 0.02971 -0.61665 102 50 12
-0.39116 0.04466 -0.57871 114 87 52
-0.40767 -0.00432 -0.60321 76 53 29
-0.37706 -0.02003 -0.65297 91 138 143
-0.38894 0.04465 -0.58093 38 18 5
-0.40626 0.03994 -0.55327 125 99 61
-0.40499 -0.00411 -0.59947 94 80 56
-0.39121 -0.01324 -0.64406 0 6 23
-0.38986 -0.01404 -0.64223 0 23 41
-0.38059 0.03063 -0.58288 76 85 95
-0.40771 0.04026 -0.55367 66 38 13
-0.39283 0.05238 -0.56308 73 48 18
-0.39259 0.01617 -0.57215 93 55 12
-0.41087 0.04104 -0.54838 97 65 16
-0.42318 0.00132 -0.58100 96 104 89
-0.38200 0.02906 -0.57991 65 98 86
-0.42291 0.00169 -0.58120 80 96 86
-0.41672 -0.00600 -0.58836 100 87 56
-0.39331 0.04599 -0.55759 108 57 14
-0.40394 -0.02322 -0.63308 20 64 31
-0.38908 0.05036 -0.55940 117 93 55
-0.39925 0.05562 -0.57163 98 77 59
-0.38075 0.03056 -0.58275 76 85 95
-0.38692 0.04265 -0.57369 118 87 28
-0.38942 0.02413 -0.60052 126 74 36
-0.44700 0.01045 -0.60922 97 105 90
-0.43269 0.00049 -0.59137 2 7 3
-0.39277 0.04249 -0.54897 134 88 37
-0.42424 -0.00259 -0.58058 0 0 1
-0.38960 0.01515 -0.56836 103 63 14
-0.38148 0.07012 -0.52134 129 112 85
-0.38880 0.04374 -0.57830 114 84 45
-0.38842 0.05086 -0.55990 25 0 0
-0.37448 -0.03560 -0.64843 136 147 127
-0.39801 -0.02577 -0.62543 21 53 19
-0.41142 0.04482 -0.54868 68 89 96
-0.42660 0.01062 -0.56389 60 66 49
-0.39533 0.03696 -0.60102 85 84 91
-0.37903 0.02803 -0.57615 57 97 88
-0.39009 0.05590 -0.55785 0 0 8
-0.41173 -0.02231 -0.62543 0 33 46
-0.38670 0.04355 -0.57365 4 0 0
-0.40072 -0.00642 -0.59459 98 80 50
-0.37895 0.05047 -0.54408 20 0 0
-0.39251 0.04636 -0.58091 4 0 0
-0.37897 0.07881 -0.53334 135 132 104
-0.39987 0.05589 -0.57091 27 13 0
-0.39256 0.05285 -0.56515 5 0 0
-0.42543 0.02324 -0.56241 97 77 46
-0.42134 0.04602 -0.56051 92 56 15
-0.41841 0.04525 -0.56374 99 70 22
-0.44479 0.03436 -0.53997 125 89 29
-0.37693 0.02486 -0.57887 90 70 34
-0.41715 0.01365 -0.58469 82 80 47
-0.38895 -0.01466 -0.64102 0 22 40
-0.38806 0.04329 -0.57632 56 20 0
-0.39115 0.04457 -0.57898 114 87 52
-0.52410 0.07242 -0.56905 123 118 90
-0.39445 0.05946 -0.56116 94 52 18
-0.37591 -0.04214 -0.64719 156 190 183
-0.40649 0.02247 -0.58408 101 73 11
-0.44371 0.06593 -0.51838 99 74 44
-0.43105 0.02538 -0.56843 96 76 45
-0.38811 0.02730 -0.57428 128 90 47
-0.41888 0.02089 -0.55560 101 93 64
-0.41952 0.01307 -0.58249 9 0 3
-0.39339 0.05379 -0.56590 31 13 0
-0.39548 -0.01872 -0.64094 79 139 170
-0.39548 0.02691 -0.60878 116 71 34
0.27941 -0.04480 0.45895 83 135 139
0.29801 -0.00399 0.43963 96 87 64
0.32800 -0.01038 0.43923 60 100 143
0.32583 -0.03236 0.45100 84 65 40
0.33907 -0.03143 0.44637 148 161 163
0.33833 -0.02875 0.44563 103 137 159
0.33891 -0.03210 0.44830 8 43 53
0.33564 -0.00841 0.43628 78 98 119
0.22668 0.00309 0.42227 109 64 27
0.33173 -0.00993 0.43972 90 109 102
0.33351 -0.00473 0.43572 26 34 19
0.31751 -0.03355 0.45741 99 95 83
0.32443 -0.02942 0.45053 116 126 127
0.37350 -0.08815 0.45904 91 142 156
0.28694 0.02877 0.42438 67 40 12
0.29941 -0.00237 0.44257 82 74 53
0.31220 -0.02100 0.45555 65 78 103
0.30628 -0.01099 0.44622 101 73 50
0.29243 0.01697 0.43695 55 70 76
0.31646 -0.02266 0.45673 25 16 5
0.31637 -0.00667 0.42970 0 0 8
0.28644 0.03797 0.42251 58 98 139
0.26382 -0.03102 0.45767 6 27 38
0.30610 -0.02665 0.45915 56 42 37
0.33821 -0.02929 0.44504 81 115 135
0.32591 0.00045 0.42714 113 132 128
0.30846 -0.00097 0.43897 77 89 100
0.33160 -0.03461 0.45234 79 119 126
0.34505 -0.02576 0.43842 58 82 84
0.33288 -0.03410 0.45050 70 99 100
0.26010 -0.03617 0.45857 58 112 138
0.33695 -0.01257 0.43334 94 122 137
0.30277 0.07192 0.40166 0 21 70
0.32587 -0.03184 0.45500 87 93 80
0.32554 -0.04378 0.46098 0 46 75
0.34098 0.00678 0.43322 19 23 31
0.30163 0.00457 0.43696 18 28 33
0.31867 -0.00452 0.43180 36 70 117
0.29495 0.01103 0.43674 62 85 101
0.32224 -0.00145 0.43800 18 57 112
0.32191 0.00377 0.43516 7 7 19
0.30221 -0.00441 0.45231 103 115 95
0.27940 -0.00827 0.44382 0 0 25
0.33104 -0.01877 0.44578 88 97 102
0.34163 -0.01349 0.43483 21 48 97
0.33987 -0.01990 0.43928 10 12 3
0.28238 -0.00208 0.43520 0 9 32
0.33460 -0.02804 0.44702 86 110 93
0.33374 -0.02225 0.44407 14 42 52
0.29152 0.03586 0.42153 79 77 91
0.32433 -0.03323 0.45156 106 100 86
0.26249 -0.03811 0.45822 118 151 141
0.30720 -0.02730 0.44589 93 102 118
0.28989 0.03386 0.41825 86 72 73
0.32566 -0.02954 0.45399 24 51 77
0.33452 -0.02892 0.43369 86 98 84
0.29226 0.01496 0.43567 10 0 0
0.34227 -0.00723 0.42788 125 144 135
0.28955 -0.02000 0.44914 97 141 140
0.34139 -0.01325 0.43579 103 119 145
0.33408 -0.03554 0.45194 88 102 115
0.34004 -0.01944 0.43986 21 28 22
0.38964 -0.03894 0.44337 70 123 139
0.26291 -0.03859 0.45661 92 119 122
0.32581 -0.02533 0.45424 22 40 41
0.33860 -0.03399 0.44697 95 117 101
0.34307 -0.01562 0.43490 140 122 113
0.33840 -0.00277 0.43140 94 94 94
0.34109 -0.01361 0.43526 99 115 137
0.34369 -0.01571 0.43451 78 60 49
0.33156 -0.01154 0.44000 103 99 89
0.33185 -0.03323 0.45083 74 151 172
0.34232 0.00527 0.43687 0 0 0
0.27155 -0.04133 0.45429 92 103 83
0.33337 -0.00510 0.43531 25 32 22
0.29860 0.02908 0.42261 16 0 0
0.27449 -0.03888 0.45106 78 106 93
0.29882 0.03145 0.42084 5 0 0
0.34103 -0.01051 0.43300 88 88 88
0.30916 -0.02357 0.44854 48 61 88
0.24062 0.02364 0.39352 136 117 51
0.34132 0.00506 0.43397 58 68 69
0.28644 0.01931 0.43590 109 60 8
0.30615 0.03553 0.42382 80 66 40
0.32332 -0.00281 0.43809 60 122 158
0.30333 0.07251 0.40317 58 156 189
0.31103 -0.02371 0.45429 94 92 104
0.32316 -0.03082 0.44971 3 8 21
0.28983 -0.02004 0.44858 101 140 138
0.34106 -0.01206 0.43449 77 97 116
0.31917 -0.02537 0.45641 46 41 19
0.33833 -0.01355 0.43714 2 0 0
0.31253 0.09405 0.39104 0 10 36
0.32741 -0.01287 0.44420 75 73 69
0.32542 -0.00480 0.44107 48 45 19
0.27015 -0.04350 0.45373 58 98 105
0.33900 0.00814 0.42495 89 108 97
0.33367 -0.02146 0.44372 96 122 134
0.33827 0.00171 0.42831 85 100 102
0.27685 0.08008 0.40546 108 97 109
0.31542 -0.01346 0.45361 75 54 36
0.33948 -0.01328 0.43197 95 113 133
0.31410 -0.03431 0.46014 68 82 70
0.33146 -0.01319 0.44159 79 86 82
0.34291 -0.01296 0.43363 0 24 72
0.32489 -0.00483 0.44137 107 102 76
0.29673 -0.02176 0.45078 0 21 27
0.34135 -0.00864 0.44143 72 106 124
0.32000 -0.02457 0.46440 77 68 47
0.31168 -0.02482 0.44751 43 53 56
0.31739 0.00216 0.42877 90 113 99
0.28787 0.03049 0.42726 95 54 18
0.27332 0.07481 0.40773 11 34 77
0.31746 -0.01818 0.45051 121 101 85
0.27413 0.07747 0.41112 8 16 35
0.33977 -0.02575 0.44315 101 108 102
0.34397 -0.01562 0.43519 47 27 16
0.25834 -0.03550 0.45764 136 194 193
0.35029 -0.01113 0.43313 74 115 152
0.34506 -0.01474 0.43306 24 31 27
0.33944 -0.02585 0.44250 70 75 71
0.29226 0.03674 0.42315 79 77 91
0.33787 -0.03255 0.44683 15 50 63
0.27374 -0.03223 0.44526 1 76 97
0.25606 -0.01986 0.44858 91 153 185
0.26513 -0.04087 0.45549 0 13 36
0.34447 -0.01621 0.43421 63 61 53
0.32465 -0.00522 0.44112 104 105 84
0.34060 0.00249 0.42807 47 66 103
0.33608 -0.01941 0.44823 94 120 132
0.33500 -0.00444 0.43453 40 28 6
0.31466 -0.02076 0.45690 7 31 67
0.30807 -0.02816 0.44681 39 38 68
0.31720 -0.03105 0.44204 75 70 67
0.23960 0.02124 0.40168 85 44 4
0.31091 -0.01689 0.44375 87 86 75
0.22217 0.01573 0.41394 70 110 119
0.21983 0.02940 0.40198 142 94 35
0.32335 -0.02182 0.44848 116 112 79
0.22250 0.01999 0.40120 70 109 107
0.37147 -0.09250 0.45898 0 4 28
0.32746 -0.01065 0.44388 95 101 103
0.32932 -0.01304 0.43636 114 114 109
0.33220 -0.02436 0.44017 55 94 92
0.26715 -0.04006 0.45477 0 54 76
0.30648 -0.02308 0.45695 124 103 99
0.32464 -0.01317 0.43957 0 0 2
0.34153 0.00960 0.42790 0 1 0
0.28943 0.03338 0.41719 79 77 91
0.34581 -0.01400 0.43461 9 16 12
0.26181 -0.03871 0.45636 130 160 154
0.33081 -0.02279 0.44708 17 7 0
0.21245 0.02594 0.40306 114 101 70
0.26681 -0.04027 0.45410 0 57 89
0.33829 -0.03475 0.44755 0 0 0
0.31646 -0.03318 0.46232 0 2 0
0.32207 -0.02372 0.44273 96 97 76
0.33074 -0.02556 0.43763 87 126 124
0.30976 -0.02470 0.45159 86 97 118
0.30480 -0.02757 0.45643 79 61 52
0.34289 -0.02014 0.43726 0 11 74
0.33435 -0.02319 0.44411 90 105 105
0.27938 -0.04030 0.44866 0 29 39
0.26095 -0.03597 0.45794 96 185 203
0.34479 -0.02605 0.43803 58 82 84
0.31812 -0.00280 0.44394 97 92 89
0.28792 -0.02155 0.44465 128 169 167
0.33904 -0.03376 0.44770 57 77 61
0.33722 -0.01888 0.43635 60 120 159
0.36939 -0.09073 0.45507 81 146 152
0.33194 -0.03820 0.44941 122 143 136
0.26268 -0.02501 0.44449 8 34 42
0.32399 -0.04490 0.45829 0 12 37
0.29755 -0.00414 0.43899 97 85 57
0.30372 -0.01327 0.44049 106 78 55
0.22619 0.00250 0.42094 116 68 11
0.32838 -0.01510 0.44048 99 101 98
0.22209 0.01083 0.42241 76 87 80
0.34278 -0.00764 0.43099 3 2 0
0.31788 0.00011 0.42965 87 78 60
0.31421 -0.00640 0.43573 12 12 7
0.30845 -0.00247 0.43708 66 66 59
0.34306 -0.01638 0.43199 124 122 116
0.33620 -0.03637 0.44654 99 123 123
0.31861 -0.01738 0.44930 56 35 13
0.22007 0.00736 0.41177 58 102 106
0.33019 -0.03711 0.45128 92 123 130
0.25817 -0.02047 0.44804 0 13 33
0.33182 -0.02349 0.44005 95 109 120
0.27663 -0.02994 0.44913 110 187 206
0.34164 0.00432 0.43389 81 96 98
0.33024 -0.02569 0.44226 107 143 169
0.32870 -0.02140 0.44117 0 2 22
0.33582 -0.01577 0.43641 85 70 56
0.32589 -0.00559 0.43765 53 38 24
0.33912 -0.03397 0.44903 0 11 5
0.27492 -0.03127 0.44790 8 85 109
0.33029 -0.02571 0.44218 84 120 146
0.25802 -0.02040 0.44779 0 7 26
0.32487 -0.00492 0.44149 104 105 84
0.25926 -0.03660 0.45673 15 68 102
0.28227 -0.06253 0.47536 68 129 136
0.33752 -0.03583 0.44861 95 111 108
0.31883 0.00097 0.43136 87 78 60
0.34175 -0.01524 0.43564 21 6 0
0.34160 -0.01195 0.43406 3 25 46
0.33405 -0.01317 0.43988 102 93 82
0.29411 0.01132 0.44954 89 90 95
0.34443 -0.00396 0.42724 64 86 70
0.33933 -0.01914 0.43858 82 95 99
0.33457 -0.00457 0.43422 27 18 0
0.21184 0.02368 0.40100 72 54 41
0.29747 -0.02995 0.45535 120 117 74
0.33805 -0.03334 0.46002 0 3 7
0.32605 -0.00516 0.44017 85 72 64
0.25902 -0.03517 0.45866 139 196 209
0.28700 -0.03370 0.45197 37 102 108
0.26228 -0.03641 0.45738 141 185 178
0.31676 -0.03115 0.44135 78 83 82
0.29103 -0.03188 0.45901 100 133 121
0.33491 -0.02290 0.44540 74 67 64
0.32351 -0.02705 0.44997 22 40 41
0.31276 0.06801 0.41516 12 113 145
0.30196 0.00120 0.44795 10 0 0
0.28196 -0.00176 0.43256 0 18 34
0.31611 -0.02699 0.45926 87 78 57
0.33188 -0.01005 0.43964 83 89 74
0.32880 -0.44476 0.49501 3 140 102
0.31899 -0.02557 0.45656 60 51 33
0.26454 -0.01534 0.44939 106 144 147
0.33180 -0.03407 0.45186 83 127 131
0.32149 -0.02517 0.46371 79 70 57
0.24525 0.00950 0.42519 77 105 111
0.29925 0.03245 0.41986 57 34 12
0.32668 -0.03992 0.44452 101 131 125
0.22623 0.00324 0.42135 126 87 19
0.33943 0.00464 0.43544 28 43 47
0.27588 0.02114 0.42538 74 88 44
0.29052 0.03369 0.43338 92 51 15
0.29257 0.03031 0.41007 40 92 139
0.28723 -0.02100 0.43713 0 36 66
0.30762 0.01755 0.43523 80 87 79
0.27656 -0.03243 0.45058 150 201 187
0.36894 -0.09087 0.45781 0 45 59
0.33022 -0.01404 0.43632 90 79 73
0.39868 -0.09964 0.45283 78 144 159
0.34513 -0.02490 0.43889 0 0 15
0.27866 -0.03370 0.44995 9 62 74
0.33714 0.00343 0.42971 0 4 7
0.27343 -0.03227 0.45246 130 175 172
0.36289 -0.24528 0.49183 78 150 159
0.32456 -0.01317 0.43966 0 3 17
0.32567 -0.00432 0.44302 104 105 84
0.32482 -0.01241 0.43904 86 95 98
0.26178 -0.03938 0.45775 85 100 106
0.32541 -0.02430 0.45398 83 121 124
0.34293 -0.01129 0.43524 82 107 127
0.33378 -0.03573 0.45130 59 73 86
0.27416 0.07748 0.41128 0 3 22
0.27917 -0.04492 0.45836 83 135 139
0.32823 -0.02656 0.43990 0 13 37
0.33703 -0.01472 0.43864 84 69 55
0.32884 -0.02665 0.43951 94 125 148
0.26111 -0.03887 0.45689 89 121 117
0.31794 0.00076 0.43204 24 5 0
0.27682 -0.00696 0.43807 23 36 4
0.33400 -0.02141 0.44416 80 99 111
0.27159 -0.02736 0.44384 143 192 195
0.29321 -0.02489 0.44315 0 0 0
0.34000 -0.00504 0.44414 57 75 99
0.25882 -0.09300 0.49614 159 136 85
0.30773 -0.02685 0.44691 93 102 118
0.32209 -0.02618 0.44960 51 113 149
0.34406 0.00247 0.42404 23 64 101
0.22847 0.00530 0.42715 66 28 14
0.31114 -0.00313 0.43586 35 49 60
0.33208 -0.03702 0.45246 34 63 60
0.24691 0.01630 0.41021 79 47 31
0.32954 -0.01516 0.43973 107 117 110
0.32996 -0.01412 0.43889 102 112 107
0.33776 -0.02681 0.43985 91 81 70
0.33993 0.00791 0.42547 25 16 3
0.26141 -0.01867 0.44141 112 141 138
0.26133 -0.01783 0.44094 78 85 54
0.33242 -0.02377 0.44759 0 24 53
0.33846 -0.03380 0.44692 113 135 119
0.35177 -0.01062 0.44577 92 90 82
0.32714 -0.01263 0.44420 66 64 58
0.32573 -0.02098 0.44957 78 75 53
0.33499 -0.01432 0.43979 11 17 19
0.34124 -0.01218 0.43438 58 78 97
0.30371 0.09192 0.40670 0 25 55
0.24325 0.02742 0.40003 70 67 39
0.34369 -0.00820 0.43066 91 85 66
0.34775 -0.01328 0.43941 101 96 89
0.32409 -0.01261 0.43269 47 75 115
0.27334 0.07522 0.39799 111 98 81
0.32912 -0.00813 0.44936 58 84 113
0.40887 -0.06464 0.43526 42 108 123
0.33683 -0.01170 0.43395 63 112 145
0.33483 -0.00454 0.43148 97 111 101
0.29792 0.01376 0.44329 60 77 87
0.26404 -0.03662 0.46079 18 43 35
0.30277 0.09868 0.38264 100 142 124
0.27189 -0.02944 0.45180 8 65 78
0.27607 -0.03254 0.45095 0 27 24
0.28829 -0.02821 0.44759 85 101 93
0.33664 0.00302 0.43028 0 8 3
0.33785 -0.00076 0.43157 28 23 20
0.33697 0.01067 0.42570 82 88 90
0.34287 -0.02288 0.43954 85 93 109
0.28965 -0.03162 0.45520 0 17 41
0.27706 -0.03535 0.44588 0 49 64
0.31056 -0.02502 0.44646 65 83 107
0.27800 -0.02818 0.45235 113 195 213
0.33220 -0.02603 0.44099 0 0 0
0.36726 -0.08277 0.45478 0 17 39
0.27990 -0.03745 0.45631 75 118 126
0.34690 -0.02372 0.44175 0 16 27
0.29476 -0.02297 0.44711 0 6 0
0.30193 0.03280 0.42770 89 76 62
0.34130 -0.01024 0.43339 88 88 88
0.34390 -0.01233 0.43266 59 95 121
0.34754 -0.02160 0.43464 4 42 75
0.29947 -0.02658 0.45940 0 20 17
0.31966 -0.03224 0.46106 75 70 65
0.29591 0.08727 0.39377 0 45 36
0.32042 -0.02497 0.44451 0 0 0
0.26140 -0.02952 0.45130 174 198 198
0.27541 -0.03364 0.44760 135 186 168
0.33676 -0.01284 0.43273 61 89 104
0.35000 -0.02158 0.44569 85 108 119
0.33354 -0.03588 0.45087 59 73 86
0.31848 -0.03345 0.46042 43 46 28
0.26760 -0.04122 0.45675 0 41 55
0.33657 -0.40994 0.41035 0 33 31
0.20756 0.00175 0.41538 43 44 28
0.31544 -0.02820 0.45609 42 23 2
0.32464 -0.03295 0.45212 93 87 73
0.31465 -0.02261 0.45367 91 98 97
0.32353 -0.00615 0.43884 104 105 84
0.29692 0.02735 0.41910 19 2 0
0.29636 -0.02199 0.45009 0 0 0
0.28266 -0.00332 0.43313 0 22 51
0.29365 0.02019 0.44032 81 62 60
0.31759 -0.02643 0.45371 78 73 49
0.24743 0.01729 0.41202 105 55 19
0.27804 -0.00990 0.43991 0 41 75
0.34550 -0.02479 0.43758 61 87 99
0.33112 -0.01403 0.44226 51 61 54
0.31701 -0.00037 0.42573 9 3 8
0.33726 -0.03604 0.44883 63 76 76
0.32275 -0.00869 0.44493 60 80 101
0.21184 0.02401 0.40259 9 5 0
0.29698 0.04218 0.43292 52 50 64
0.30672 -0.00379 0.43416 64 74 67
0.27748 0.04591 0.41628 52 81 109
0.30148 -0.00034 0.43532 77 69 33
0.29856 -0.02880 0.45348 52 56 30
0.29307 -0.03116 0.45836 30 75 72
0.21796 0.02056 0.41669 69 44 12
0.34630 -0.02422 0.43674 3 35 42
0.32647 -0.01746 0.43365 96 101 97
0.23087 0.03861 0.39198 153 100 33
0.32884 -0.02590 0.45903 116 126 127
0.23857 0.02173 0.39589 145 101 53
0.33911 -0.00133 0.43899 74 82 69
0.35083 -0.00795 0.45046 159 132 127
0.22062 0.00865 0.41786 58 100 91
0.32821 -0.04496 0.45640 18 35 47
0.24888 0.01916 0.41766 26 0 0
0.27738 0.07796 0.40330 10 56 94
0.22108 0.00423 0.41358 98 68 27
0.27239 -0.02903 0.45126 0 19 25
0.27380 -0.04841 0.46104 0 10 27
0.29858 -0.02869 0.45533 125 142 118
0.32273 -0.00681 0.43739 124 119 95
0.33387 -0.03607 0.45234 0 6 8
0.33907 -0.01732 0.43948 63 115 158
0.36665 -0.08966 0.45952 0 27 37
0.26145 -0.03846 0.45431 137 167 152
0.32352 0.00461 0.43036 85 65 52
0.30528 -0.02726 0.45748 89 71 62
0.26405 -0.01692 0.44600 0 39 46
0.26376 -0.01699 0.44621 103 152 159
0.26903 -0.03851 0.46385 120 164 172
0.27525 -0.03050 0.44726 0 66 90
0.30697 -0.00236 0.43609 77 89 100
0.32494 -0.01511 0.44040 12 7 4
0.31884 -0.01903 0.44658 111 90 68
0.27456 -0.03142 0.44429 119 201 219
0.31272 -0.02426 0.44937 77 84 80
0.27029 -0.03074 0.44658 0 15 21
0.34276 -0.02332 0.43890 104 116 125
0.34479 -0.00398 0.42774 113 121 106
0.34507 -0.02123 0.43624 0 36 89
0.30376 0.07273 0.40296 0 57 104
0.32218 0.00361 0.42771 127 107 91
0.30031 -0.00179 0.44445 83 74 51
0.34155 0.00183 0.42680 1 26 69
0.32068 -0.01739 0.45047 126 105 83
0.31382 -0.03475 0.45964 60 74 62
0.31469 -0.03456 0.45894 0 0 0
0.34948 0.00641 0.43602 136 103 102
0.33117 -0.02275 0.44795 16 5 1
0.36887 -0.08978 0.45528 0 51 60
0.29693 -0.02899 0.45358 0 36 31
0.31698 -0.02850 0.45519 113 104 83
0.29583 -0.03048 0.45511 77 108 86
0.31250 -0.02437 0.45604 11 10 40
0.32595 -0.01470 0.44189 6 4 2
0.29853 0.03119 0.42038 1 0 0
0.32123 -0.00947 0.44218 59 81 108
0.33326 -0.01529 0.43726 4 5 8
0.21058 0.00647 0.42530 20 23 7
0.28436 0.08611 0.39702 117 130 130
0.33565 -0.00846 0.43625 71 91 112
0.33448 -0.02331 0.44471 81 79 77
0.25232 -0.01245 0.43272 60 136 171
0.32153 0.00369 0.43860 35 12 0
0.30284 0.03397 0.42978 101 88 74
0.34587 -0.00493 0.43383 155 162 152
0.31253 -0.00790 0.43286 59 59 54
0.31997 -0.04932 0.44873 92 156 171
0.32596 -0.01061 0.44388 70 96 125
0.25996 0.07239 0.40132 2 42 92
0.26838 -0.03947 0.46139 147 185 197
0.26521 -0.01693 0.44999 108 165 157
0.24610 0.01541 0.40754 71 45 26
0.32989 -0.04291 0.46664 92 159 165
0.32609 0.00746 0.44230 13 11 27
0.30310 0.03217 0.41798 98 84 58
0.22719 0.03202 0.39890 107 86 60
0.32249 -0.01422 0.45711 59 33 14
0.30574 0.00722 0.43286 43 89 127
0.33437 -0.03277 0.45855 5 39 63
0.33433 -0.02092 0.45266 72 73 80
0.28914 0.04498 0.40124 35 94 156
0.28897 0.04137 0.42844 61 101 142
0.34322 -0.00485 0.42598 96 123 122
0.27845 -0.04557 0.45647 101 153 157
0.33847 -0.03236 0.44725 5 40 53
0.34519 -0.01427 0.43365 27 37 42
0.29418 0.01974 0.43809 117 108 95
0.31880 0.00134 0.43525 111 91 75
0.27687 -0.00204 0.43721 1 37 32
0.40100 -0.09710 0.45196 4 57 75
0.31700 -0.02717 0.45210 46 41 19
0.36917 -0.09038 0.45525 97 167 169
0.27468 -0.03306 0.44906 106 162 165
0.33998 0.00711 0.43033 94 90 78
0.30427 0.07332 0.40400 0 42 89
0.33384 -0.03341 0.45258 119 157 160
0.34054 -0.00741 0.42882 110 86 74
0.33340 -0.40772 0.40524 0 12 10
0.31239 -0.02672 0.45499 0 23 35
0.32758 -0.01598 0.43909 94 96 93
0.32104 -0.01716 0.45078 126 105 83
0.32361 -0.01637 0.43786 9 4 1
0.25565 -0.03332 0.45700 35 31 19
0.32202 -0.01527 0.43472 0 3 17
0.32537 -0.04379 0.46121 0 6 31
0.30754 0.01408 0.43024 40 10 0
0.29249 0.01559 0.43785 63 51 27
0.35179 0.00191 0.43093 0 0 8
0.34196 -0.01187 0.43377 76 101 121
0.27430 -0.03314 0.44802 106 162 165
0.34403 -0.00695 0.42908 39 42 30
0.32217 0.00375 0.43752 53 47 35
0.32695 -0.01124 0.44295 70 76 78
0.34086 -0.01240 0.43409 73 93 112
0.34791 -0.01413 0.43889 93 93 86
0.33444 -0.02831 0.44658 70 94 77
0.27188 -0.03923 0.45293 118 148 114
0.25402 -0.02250 0.44283 91 161 193
0.25774 -0.02856 0.45551 63 74 56
0.40561 -0.02716 0.43432 108 183 178
0.22420 0.02696 0.39313 68 30 0
0.32307 -0.01106 0.44542 42 31 25
0.33958 -0.00519 0.44355 70 90 111
0.35218 0.00175 0.43136 0 20 32
0.33972 -0.02932 0.42934 18 44 52
0.22033 0.02949 0.40296 141 92 40
0.34293 -0.00704 0.43165 21 17 1
0.32750 0.00826 0.42808 140 155 157
0.32576 -0.01284 0.44103 1 3 0
0.32095 0.00373 0.43482 22 27 21
0.38386 -0.00525 0.42923 77 185 217
0.34351 -0.02132 0.43736 72 129 173
0.33216 -0.03320 0.45120 79 156 177
0.32588 -0.02832 0.45323 116 126 127
0.32909 -0.04420 0.45859 16 41 63
0.30998 -0.02623 0.44451 102 109 108
0.30766 -0.02713 0.44654 90 95 108
0.27559 -0.04668 0.45441 106 169 189
0.36870 -0.09298 0.45338 0 11 31
0.24853 0.01887 0.41676 36 3 0
0.33581 -0.01091 0.42387 98 100 93
0.25165 -0.01336 0.43061 61 137 172
0.27532 0.07327 0.40831 0 81 145
0.23732 0.02097 0.39372 147 109 68
0.32007 -0.02841 0.44810 100 100 95
0.27368 -0.04739 0.46058 74 101 121
0.29075 -0.03203 0.45510 26 59 45
0.29692 -0.01592 0.44926 79 125 106
0.29142 0.09504 0.38824 0 9 15
0.33222 -0.02557 0.44080 93 107 104
0.32475 -0.04426 0.46008 0 5 30
0.31653 -0.02780 0.45283 95 85 72
0.26171 -0.03614 0.46195 0 12 11
0.31378 -0.02395 0.45267 22 17 10
0.28587 -0.02685 0.44839 0 60 53
0.34028 -0.02535 0.44410 101 108 102
0.29122 0.01650 0.43340 97 79 70
0.34007 -0.02768 0.44859 69 103 125
0.31082 0.09190 0.38788 0 15 41
0.33515 -0.01573 0.43685 31 23 2
0.24830 -0.03054 0.45706 99 147 160
0.36815 -0.09122 0.45640 0 28 42
0.34069 -0.01923 0.44081 0 0 0
0.32100 -0.02776 0.44967 98 103 102
0.28824 -0.02689 0.44513 0 30 13
0.34890 -0.00808 0.43256 94 101 97
0.34593 -0.00485 0.43293 0 6 0
0.25034 -0.03339 0.45338 103 170 203
0.33571 -0.03437 0.45497 59 73 86
0.37351 -0.09458 0.45240 0 13 30
0.26331 -0.03741 0.45866 47 68 64
0.21251 0.02508 0.40327 127 99 76
0.37365 -0.08843 0.46249 97 167 169
0.35796 -0.31104 0.43310 0 4 31
0.27023 -0.04222 0.45299 7 41 16
0.28456 0.01745 0.43093 129 95 69
0.31739 0.00022 0.43270 111 91 75
0.28193 -0.01169 0.45133 147 186 184
0.33780 0.00186 0.42926 0 15 3
0.21709 0.01923 0.41451 120 94 16
0.33502 -0.02863 0.44700 0 0 0
0.32616 -0.01690 0.43641 89 91 88
0.25445 -0.02255 0.44194 87 140 172
0.32418 -0.02975 0.44995 114 124 125
0.33129 -0.01318 0.44106 106 116 111
0.27100 -0.04170 0.45484 10 44 19
0.36949 -0.08958 0.45585 0 44 53
0.33737 -0.03614 0.44818 21 34 34
0.32124 -0.01759 0.43301 66 64 58
0.30251 0.07118 0.40083 0 28 75
0.25835 -0.03583 0.45944 140 141 127
0.29712 -0.03019 0.45411 87 100 61
0.33134 -0.03506 0.44837 114 152 155
0.35131 -0.01028 0.44374 25 25 18
0.26375 -0.02100 0.44145 10 27 35
0.31223 -0.00952 0.43295 110 88 78
0.24682 0.01688 0.41261 48 5 0
0.26978 -0.03928 0.46219 0 41 55
0.26092 -0.03312 0.46413 134 192 191
0.32267 0.00435 0.43861 53 47 35
0.30101 0.00081 0.43391 79 73 59
0.26037 -0.03385 0.46490 125 126 112
0.33548 -0.45060 0.50884 6 118 90
0.31247 0.00204 0.44637 80 81 67
0.29549 0.03541 0.41901 0 5 58
0.36565 -0.08196 0.45588 57 152 183
0.37907 -0.09341 0.45533 65 137 152
0.32014 -0.02849 0.44509 88 137 147
0.26643 -0.03999 0.45670 109 175 184
0.29083 -0.02093 0.43675 52 108 96
0.26728 -0.01785 0.44935 32 53 60
0.37249 -0.08924 0.46025 81 146 152
0.27819 0.08184 0.40812 92 81 93
0.25917 0.02262 0.40875 164 124 77
0.33772 -0.02537 0.45253 97 131 117
0.27461 0.07455 0.39809 2 27 66
0.26286 0.07070 0.40612 48 46 62
0.28115 0.02248 0.43649 0 4 43
0.34744 -0.01148 0.43871 91 121 144
0.33641 -0.02518 0.45336 63 109 122
0.34795 -0.01200 0.45459 102 117 123
0.33329 -0.01751 0.43030 118 107 76
0.22572 0.00264 0.41985 125 86 18
0.28316 0.04350 0.40532 84 98 92
0.34516 -0.00384 0.42832 113 121 106
0.36927 -0.08193 0.45795 0 17 39
0.32679 0.00739 0.42667 140 155 157
0.37068 -0.08963 0.45590 77 134 145
0.34409 -0.00652 0.43045 155 162 152
0.27152 -0.04076 0.45167 5 13 0
0.37408 -0.09474 0.45414 73 142 158
0.29087 -0.02456 0.45089 0 31 14
0.32105 0.00489 0.43424 97 112 95
0.32487 -0.02465 0.45307 91 133 147
0.31152 -0.10913 0.48868 84 133 140
0.26713 -0.03868 0.46003 143 199 228
0.30162 -0.00068 0.44706 83 74 51
0.25847 -0.03628 0.45490 19 65 101
0.34508 -0.00431 0.42862 43 37 25
0.32525 -0.02457 0.45277 0 12 15
0.28788 -0.02420 0.44562 24 74 72
0.37233 -0.09179 0.45801 75 106 125
0.33047 0.00414 0.43511 72 92 93
0.21276 -0.05857 0.25690 98 82 81
0.23223 -0.09895 0.27399 88 132 131
0.24079 -0.10518 0.27158 108 126 127
0.22342 -0.08239 0.26743 77 89 100
0.23267 -0.09849 0.27340 26 39 39
0.23809 -0.08583 0.26301 26 33 23
0.23769 -0.09035 0.26646 91 80 74
0.20972 -0.06890 0.26575 139 93 66
0.23439 -0.10203 0.27405 68 75 74
0.23365 -0.10284 0.27588 48 47 36
0.24358 -0.08643 0.26302 77 89 71
0.23573 -0.09212 0.26446 98 109 107
0.24513 -0.08670 0.26025 160 166 153
0.26378 -0.14230 0.27456 22 77 96
0.23890 -0.09807 0.26942 0 15 22
0.24580 -0.08554 0.26028 46 56 49
0.22538 -0.08345 0.26599 56 64 76
0.22233 -0.07320 0.26177 122 83 54
0.18469 -0.07330 0.26335 88 115 118
0.19213 -0.09412 0.27518 0 59 78
0.23409 -0.10100 0.27378 78 89 87
0.23035 -0.07959 0.26228 93 115 99
0.23596 -0.08023 0.26230 112 132 131
0.27007 -0.08068 0.25377 0 33 47
0.23410 -0.10101 0.27375 76 87 85
0.22649 -0.15356 0.29562 103 155 164
0.23600 -0.09004 0.26357 92 112 111
0.22932 -0.10302 0.27961 91 87 77
0.24510 -0.08647 0.26213 21 17 1
0.23752 -0.09463 0.27063 10 32 55
0.21322 -0.05816 0.25752 40 36 49
0.23217 -0.09067 0.26581 66 93 111
0.22892 -0.08179 0.26299 107 88 67
0.17987 -0.06361 0.25006 102 75 40
0.19001 -0.09282 0.27531 77 120 131
0.23149 -0.09936 0.27180 76 122 141
0.21276 -0.07108 0.26583 80 99 116
0.23286 -0.09086 0.26623 0 0 1
0.24218 -0.07834 0.25951 83 82 67
0.21478 -0.08407 0.26901 84 136 145
0.22911 -0.09463 0.27054 117 94 72
0.17889 -0.06950 0.25671 116 95 48
0.21246 -0.05892 0.25616 103 98 100
0.23874 -0.10512 0.27375 94 108 119
0.26351 -0.14316 0.27404 54 120 135
0.23187 -0.09913 0.27516 67 69 66
0.23713 -0.10620 0.27527 19 33 21
0.23709 -0.10568 0.27506 109 137 126
0.23779 -0.10587 0.27470 47 76 73
0.20914 -0.06950 0.26544 132 83 33
0.22542 -0.08335 0.26596 22 20 32
0.20940 -0.06924 0.26517 139 93 66
0.17771 -0.06300 0.25091 113 76 21
0.18817 -0.08326 0.26789 119 83 48
0.21293 -0.07226 0.26526 39 27 5
0.23041 -0.08085 0.26169 4 9 20
0.23853 -0.09601 0.26879 111 137 152
0.23415 -0.09101 0.26886 11 6 1
0.24176 -0.09370 0.26564 70 118 162
0.20821 -0.09593 0.27589 33 57 34
0.23726 -0.09775 0.27027 9 25 45
0.21293 -0.05835 0.25709 83 79 92
0.23689 -0.08920 0.26539 88 108 107
0.19254 -0.09809 0.28154 172 180 161
0.23724 -0.10442 0.27440 102 140 149
0.21666 -0.09486 0.27676 0 0 0
0.21227 -0.10217 0.27846 90 120 105
0.21693 -0.09929 0.27899 0 25 20
0.22687 -0.08504 0.26606 0 9 24
0.19885 -0.10758 0.27943 59 94 75
0.22259 -0.07294 0.26150 44 13 0
0.22707 -0.10357 0.28121 67 82 67
0.22939 -0.09845 0.27731 74 68 49
0.20977 -0.06887 0.26589 104 58 31
0.21805 -0.06025 0.25689 98 60 40
0.18456 -0.07350 0.26279 83 109 115
0.22744 -0.10026 0.27331 81 73 52
0.24307 -0.08646 0.26147 112 126 118
0.18747 -0.08244 0.26839 121 102 81
0.22870 -0.09910 0.27614 51 43 22
0.24385 -0.08642 0.26089 166 139 130
0.24539 -0.08556 0.25955 33 53 54
0.19007 -0.09316 0.27550 0 1 21
0.21517 -0.02641 0.23793 0 7 2
0.20330 -0.10055 0.27605 11 91 109
0.26486 -0.14259 0.27370 0 32 52
0.26486 -0.14298 0.27380 44 122 136
0.24023 -0.08503 0.26136 60 71 66
0.24215 -0.07855 0.26095 0 2 13
0.22036 -0.03528 0.24432 0 42 84
0.22467 -0.09710 0.27640 86 98 116
0.21013 -0.06824 0.26683 139 93 66
0.23261 -0.09860 0.27447 90 134 136
0.24291 -0.08874 0.26605 17 36 46
0.21758 -0.06121 0.25660 0 0 0
0.24576 -0.08084 0.25899 131 102 91
0.22732 -0.08640 0.26659 108 86 76
0.21993 -0.08088 0.26738 95 87 51
0.24367 -0.08035 0.25996 45 66 103
0.22572 -0.09648 0.27839 90 98 112
0.21616 -0.09153 0.27494 36 96 80
0.18417 -0.07074 0.25362 113 91 60
0.23358 -0.08946 0.26849 43 69 84
0.22852 -0.09385 0.27359 116 101 84
0.23895 -0.09775 0.26926 93 103 101
0.23328 -0.09042 0.26633 94 101 91
0.26153 -0.14174 0.27659 0 19 46
0.23317 -0.09507 0.27145 72 93 100
0.23664 -0.09512 0.26942 0 2 19
0.22495 -0.09689 0.27708 94 94 108
0.20537 -0.08647 0.27182 15 69 95
0.23947 -0.10483 0.27557 5 20 26
0.23891 -0.09700 0.26891 93 120 119
0.26000 -0.14028 0.27724 0 20 41
0.20421 -0.07655 0.26334 0 0 0
0.24068 -0.09194 0.26543 86 69 50
0.23764 -0.09789 0.27011 95 136 163
0.22084 -0.07910 0.26858 80 79 64
0.23767 -0.12517 0.28296 137 191 174
0.24571 -0.09152 0.26522 143 126 105
0.21152 -0.11564 0.28727 4 49 48
0.22546 -0.09903 0.27694 0 26 41
0.22390 -0.14609 0.29279 4 20 17
0.23294 -0.09081 0.26569 70 77 67
0.24179 -0.08047 0.26012 140 156 150
0.22719 -0.10165 0.27441 76 61 44
0.23803 -0.10406 0.27373 113 151 156
0.24764 -0.08816 0.26040 91 98 94
0.21279 -0.05852 0.25683 83 79 92
0.22497 -0.08323 0.26609 9 29 56
0.23152 -0.08694 0.26457 127 121 107
0.22610 -0.10114 0.27486 39 18 0
0.22898 -0.09979 0.27821 117 100 79
0.21667 -0.09482 0.27680 0 0 0
0.22913 -0.10348 0.27996 40 46 29
0.23331 -0.09874 0.27515 21 43 45
0.24731 -0.09148 0.26314 130 112 99
0.18945 -0.07924 0.26449 101 80 41
0.24303 -0.08151 0.26091 89 88 77
0.23981 -0.09100 0.26750 1 5 9
0.23800 -0.10301 0.26850 92 87 82
0.23311 -0.09824 0.27743 51 56 55
0.21552 -0.09189 0.27346 60 126 118
0.23879 -0.09589 0.26920 100 121 134
0.23183 -0.10184 0.27146 112 122 125
0.18463 -0.05979 0.24990 24 27 6
0.26060 -0.14166 0.27436 0 21 40
0.23604 -0.09626 0.27042 96 111 111
0.24398 -0.09188 0.26351 151 127 119
0.23891 -0.09696 0.26892 86 115 116
0.24449 -0.08824 0.26417 97 96 99
0.24035 -0.08068 0.26008 0 10 3
0.24826 -0.08774 0.26163 94 101 97
0.21200 -0.10254 0.27770 90 120 105
0.22627 -0.15363 0.29516 109 158 168
0.23340 -0.07840 0.26270 81 61 54
0.25642 -0.14314 0.27822 0 72 94
0.26101 -0.14096 0.27659 0 0 2
0.23651 -0.09721 0.27048 21 11 2
0.21723 -0.09938 0.27934 0 45 29
0.24358 -0.09433 0.26786 10 10 1
0.19852 -0.09494 0.27542 16 49 76
0.23869 -0.10518 0.27376 94 108 119
0.23207 -0.09884 0.27299 63 95 95
0.21977 -0.03522 0.24449 0 65 108
0.22663 -0.03769 0.24559 72 89 72
0.23770 -0.12531 0.28308 138 189 171
0.19093 -0.03138 0.24566 0 20 30
0.17880 -0.06975 0.25632 67 46 24
0.22770 -0.10455 0.27589 79 68 66
0.22885 -0.10382 0.27925 40 46 29
0.22998 -0.08122 0.26239 62 56 42
0.21224 -0.07067 0.26486 72 71 74
0.21275 -0.07053 0.26455 93 89 75
0.22671 -0.09563 0.27740 23 47 78
0.26625 -0.14205 0.27359 70 136 145
0.23917 -0.09547 0.27004 100 121 134
0.24590 -0.08161 0.25929 4 5 10
0.26068 -0.13945 0.27768 93 168 185
0.22774 -0.08516 0.26686 12 12 7
0.17796 -0.06399 0.25316 126 81 19
0.23952 -0.09153 0.26668 0 3 8
0.24412 -0.09511 0.26922 113 119 127
0.23412 -0.11205 0.27470 18 44 54
0.23388 -0.09774 0.27655 59 86 83
0.23004 -0.08947 0.26640 62 82 105
0.23027 -0.08428 0.26358 59 88 126
0.18830 -0.08282 0.26831 125 87 44
0.20861 -0.06414 0.25674 122 84 45
0.20830 -0.08186 0.26675 82 144 160
0.14790 -0.10783 0.29140 89 142 249
0.24762 -0.09729 0.26641 101 123 127
0.24331 -0.09106 0.26344 103 119 143
0.20415 -0.07596 0.26500 52 85 83
0.18566 -0.10010 0.28165 71 119 136
0.14754 -0.10812 0.29109 0 17 109
0.26037 -0.13732 0.27605 0 53 71
0.23149 -0.09937 0.27452 93 95 92
0.26518 -0.14343 0.27364 0 0 10
0.23130 -0.09956 0.27143 88 131 135
0.22386 -0.09785 0.27489 94 94 108
0.23006 -0.07977 0.26198 91 114 100
0.20571 -0.08649 0.27168 0 57 80
0.23738 -0.10615 0.27409 18 54 53
0.20054 -0.09599 0.27507 145 171 145
0.23310 -0.07853 0.26198 119 96 76
0.18733 -0.09404 0.27639 0 43 61
0.24484 -0.09130 0.26565 48 30 21
0.24734 -0.09532 0.26595 83 123 162
0.22200 -0.07360 0.26105 122 83 54
0.23282 -0.10372 0.27201 86 70 38
0.23575 -0.09197 0.26463 119 130 128
0.23864 -0.10567 0.27407 0 0 0
0.24066 -0.09170 0.26632 29 20 9
0.23241 -0.08695 0.26403 101 88 76
0.23587 -0.10492 0.27548 80 91 86
0.22846 -0.37225 0.32726 167 141 72
0.23908 -0.10488 0.27447 94 108 119
0.23404 -0.10251 0.27652 44 43 32
0.22904 -0.09342 0.27495 116 96 80
0.18412 -0.06047 0.24880 111 105 57
0.23187 -0.09730 0.26958 107 104 80
0.24002 -0.08626 0.25934 86 96 97
0.26184 -0.13987 0.27681 70 133 140
0.23188 -0.08746 0.27027 63 83 106
0.24954 -0.09009 0.26349 102 144 164
0.23339 -0.09596 0.27245 70 65 43
0.23009 -0.07963 0.26261 80 110 97
0.23235 -0.08660 0.26364 92 73 48
0.21833 -0.02559 0.24275 0 75 91
0.17853 -0.12112 0.29960 33 68 81
0.23425 -0.10240 0.27443 28 16 0
0.17825 -0.07164 0.25629 104 60 12
0.24532 -0.09120 0.26237 92 134 161
0.21239 -0.09266 0.27210 0 41 73
0.23870 -0.09642 0.26879 93 110 122
0.21197 -0.10226 0.27757 32 69 56
0.19201 -0.10026 0.28133 147 204 215
0.21303 -0.07047 0.26533 95 79 76
0.24586 -0.08496 0.25898 122 118 99
0.21745 -0.02727 0.24042 93 184 200
0.21063 -0.10298 0.27866 100 120 125
0.26301 -0.23252 0.29517 81 145 162
0.21474 -0.16458 0.30498 0 32 28
0.26386 -0.14294 0.27467 54 120 135
0.24647 -0.09126 0.26330 34 37 25
0.22560 -0.09730 0.27362 97 111 120
0.24171 -0.09371 0.26564 70 118 162
0.25993 -0.13508 0.27575 0 15 39
0.24347 -0.08656 0.26117 57 51 35
0.22092 -0.03459 0.24548 0 59 101
0.22296 -0.07261 0.26316 89 54 37
0.20362 -0.08255 0.26727 1 37 32
0.25640 -0.23571 0.29807 63 133 138
0.24032 -0.09217 0.26481 100 83 64
0.23837 -0.09123 0.26552 102 93 82
0.22802 -0.10082 0.27635 90 75 58
0.24830 -0.08762 0.26179 94 101 97
0.20174 -0.09727 0.27522 151 198 199
0.23693 -0.09796 0.26963 9 25 45
0.23619 -0.09742 0.26982 21 15 1
0.24700 -0.09511 0.26607 2 54 104
0.24164 -0.07468 0.25921 93 95 95
0.22651 -0.15365 0.29544 96 148 157
0.20718 -0.08244 0.26551 134 183 190
0.23150 -0.08701 0.26457 122 118 104
0.21792 -0.09937 0.27850 59 68 41
0.22737 -0.08655 0.26660 84 62 54
0.21727 -0.02761 0.24002 19 110 126
0.22881 -0.09483 0.27008 133 110 88
0.19463 -0.06964 0.25856 0 4 6
0.22042 -0.03516 0.24457 0 42 84
0.19548 -0.09963 0.27681 51 84 80
0.20115 -0.03696 0.24548 0 46 91
0.22561 -0.09761 0.27337 101 110 111
0.23803 -0.12504 0.28384 138 189 171
0.19470 -0.09211 0.27259 113 149 148
0.24411 -0.09141 0.26509 90 70 57
0.24001 -0.08466 0.26423 38 29 8
0.21754 -0.08324 0.26990 96 84 58
0.22662 -0.09586 0.27996 92 100 126
0.22670 -0.10083 0.27197 65 60 38
0.21065 -0.04988 0.25288 112 98 76
0.23793 -0.10408 0.27352 127 165 170
0.24278 -0.09519 0.26642 0 0 0
0.19413 -0.03260 0.24726 28 117 159
0.24016 -0.08212 0.25695 124 140 134
0.23347 -0.08533 0.26643 124 107 82
0.26202 -0.14150 0.27975 89 158 168
0.22986 -0.08007 0.26558 82 89 79
0.21124 -0.04877 0.25439 105 101 82
0.23889 -0.09806 0.26945 0 20 27
0.21330 -0.07219 0.26628 133 111 99
0.26109 -0.25757 0.29814 0 24 57
0.19047 -0.09385 0.27575 6 76 108
0.23144 -0.09935 0.27458 102 111 112
0.24545 -0.04898 0.24673 146 222 230
0.26534 -0.14366 0.27355 65 131 146
0.23859 -0.12506 0.28482 125 170 153
0.25981 -0.13433 0.27561 39 116 137
0.20499 -0.08315 0.26701 0 23 16
0.23291 -0.10130 0.27461 11 20 36
0.20191 -0.08134 0.27027 111 142 122
0.23404 -0.09115 0.26802 59 59 56
0.21269 -0.07283 0.26490 100 85 68
0.24478 -0.09017 0.26516 21 48 97
0.19038 -0.09385 0.27495 92 152 185
0.24238 -0.08030 0.26172 0 7 0
0.20084 -0.10693 0.28105 44 71 34
0.26058 -0.13987 0.27564 0 24 31
0.23289 -0.09182 0.26623 75 73 67
0.20009 -0.10627 0.28261 68 102 77
0.18747 -0.09382 0.27695 0 43 61
0.22738 -0.09518 0.27107 86 64 52
0.20178 -0.03613 0.24676 0 89 128
0.24525 -0.08868 0.26310 103 115 128
0.22883 -0.37196 0.32649 43 49 4
0.22396 -0.09680 0.27389 95 111 139
0.23220 -0.09880 0.27584 76 78 75
0.24115 -0.09733 0.26392 117 142 160
0.22569 -0.10104 0.27505 99 90 67
0.21151 -0.07683 0.26897 87 93 101
0.27626 -0.10304 0.25999 68 142 157
0.19326 -0.03420 0.24536 0 43 88
0.19157 -0.09401 0.27367 112 165 177
0.22988 -0.36955 0.32370 5 125 180
0.22230 -0.08842 0.27153 56 46 35
0.23078 -0.08016 0.26253 8 8 8
0.24138 -0.09054 0.26872 69 65 55
0.22989 -0.08465 0.26398 2 15 21
0.23301 -0.08576 0.26704 53 45 22
0.22385 -0.09676 0.27361 72 85 110
0.19233 -0.06901 0.25767 119 111 75
0.18082 -0.05412 0.24280 88 35 6
0.24763 -0.09137 0.26100 110 127 137
0.22247 -0.08740 0.27345 83 57 32
0.16673 -0.06279 0.24564 110 60 3
0.23683 -0.10575 0.27437 101 133 103
0.22630 -0.09092 0.27330 74 89 89
0.23551 -0.11079 0.27749 9 32 41
0.21671 -0.09024 0.27798 60 145 162
0.22756 -0.08512 0.26675 107 107 107
0.23440 -0.10202 0.27408 68 75 74
0.21044 -0.09531 0.27205 93 136 140
0.26496 -0.14201 0.27540 91 153 169
0.18729 -0.09365 0.27699 0 28 46
0.27649 -0.14711 0.26937 69 135 150
0.21676 -0.09118 0.27573 73 119 102
0.22764 -0.08529 0.26680 97 92 89
0.22676 -0.09703 0.27614 24 15 6
0.24581 -0.08526 0.25916 50 41 28
0.23596 -0.09165 0.26812 100 91 82
0.21159 -0.10294 0.27625 8 38 25
0.24410 -0.08653 0.26078 44 22 12
0.20953 -0.09823 0.27482 0 51 49
0.20596 -0.07724 0.26300 0 24 44
0.14767 -0.10767 0.29074 20 15 44
0.19020 -0.09404 0.27726 19 91 119
0.20438 -0.20209 0.32417 23 47 30
0.26033 -0.13969 0.27483 0 22 33
0.23674 -0.09106 0.26640 87 94 90
0.23781 -0.12483 0.28273 11 45 22
0.21376 -0.06955 0.26611 109 94 80
0.22525 -0.02265 0.23524 0 0 22
0.23244 -0.08610 0.26635 122 118 104
0.20930 -0.08189 0.26825 13 96 107
0.22827 -0.08562 0.26838 102 84 77
0.23011 -0.07083 0.25925 0 1 0
0.22530 -0.09864 0.27683 66 87 117
0.20425 -0.11285 0.28610 35 92 103
0.20434 -0.08553 0.26866 86 97 88
0.20373 -0.08522 0.26876 74 109 72
0.16936 -0.07249 0.26123 99 122 112
0.28198 -0.11128 0.26030 0 55 63
0.23622 -0.11205 0.27848 131 189 192
0.24236 -0.10369 0.27183 54 74 58
0.23467 -0.09001 0.27001 85 85 76
0.26544 -0.14223 0.27436 97 182 201
0.21586 -0.16496 0.30600 139 164 159
0.17895 -0.06949 0.25691 106 78 30
0.23915 -0.08487 0.26483 49 57 44
0.25044 -0.34678 0.26024 0 28 23
0.21926 -0.05926 0.26003 10 10 1
0.22162 -0.08902 0.27104 107 77 50
0.19004 -0.06661 0.25100 108 71 25
0.24415 -0.09013 0.26684 65 70 69
0.23229 -0.10219 0.27289 23 43 64
0.23243 -0.09866 0.27433 81 137 145
0.22667 -0.08718 0.26505 102 84 77
0.24157 -0.07964 0.25961 0 11 26
0.24177 -0.09891 0.26876 4 9 1
0.25125 -0.34711 0.26124 0 28 24
0.24387 -0.09172 0.26414 76 49 40
0.24114 -0.09163 0.26576 78 55 37
0.17856 -0.07515 0.25923 83 58 26
0.22711 -0.09480 0.27077 97 93 81
0.25746 -0.14205 0.27714 10 66 88
0.22785 -0.09462 0.27026 58 32 13
0.23485 -0.08559 0.26592 20 6 5
0.17353 -0.05776 0.24757 108 83 51
0.21565 -0.08815 0.26794 81 124 103
0.21102 -0.06041 0.25335 83 84 70
0.23278 -0.08582 0.26697 122 118 104
0.24221 -0.10027 0.27121 107 144 163
0.22830 -0.10061 0.27705 99 85 65
0.23153 -0.09913 0.27441 0 28 38
